# .PCD v0.7 - Point Cloud Data file format
VERSION 0.7
FIELDS x y z intensity
SIZE 4 4 4 4
TYPE F F F F
COUNT 1 1 1 1
WIDTH 1163
HEIGHT 1
VIEWPOINT 0 0 0 1 0 0 0
POINTS 1163
DATA ascii
679.52875 -538.31427 -10.321232 12.330953
679.88538 -537.81622 -10.276812 7.6599998
757.15259 -538.53705 -10.214529 10.96
764.64771 -538.5141 -11.056213 9.2649994
765.69702 -538.62012 -10.244668 13.62
767.48926 -538.3877 -10.29899 14.389999
768.22168 -538.09991 -11.008767 9.7699804
780.06171 -538.13794 -11.266071 8.1550007
780.33771 -538.47076 -11.138366 8.7266665
791.60535 -538.03125 -11.396558 15.82
791.96979 -538.55426 -11.32983 17.120001
794.50415 -537.5929 -10.412892 10.2
799.33002 -538.00568 -11.307415 7.5599999
799.90936 -537.9671 -11.069287 7.3652434
802.31189 -538.77612 -10.385225 5.5024886
804.22217 -538.01514 -11.212523 15.63
805.07831 -538.21997 -11.286719 14.847626
805.92413 -537.99774 -10.40385 8.121417
831.73993 -538.47919 -10.711329 5.4749999
832.95648 -537.96283 -11.192657 5.8050003
833.84399 -537.7843 -10.382759 8.5799999
854.93976 -538.00348 -11.127625 7.6973114
856.19617 -537.69751 -11.255825 9.1741676
856.9646 -538.11316 -11.230647 7.4906063
861.41144 -538.06592 -10.631066 5.2609072
862.38824 -537.94928 -11.206242 8.5208206
863.25116 -537.96759 -10.941365 8.3800001
864.41406 -538.27759 -11.015244 10.715181
869.57452 -537.6355 -11.076445 6.6500001
900.95294 -537.80872 -11.015764 6.6101112
901.01245 -537.80688 -10.968756 6.6100001
917.50891 -537.72205 -10.524613 9.3599997
918.27185 -537.65125 -10.474695 9.9773664
927.52881 -537.61243 -11.084027 9.1199999
928.33813 -537.85303 -11.044762 8.6000004
678.08606 -537.23474 -10.46703 7.4200001
678.87207 -537.07043 -10.597813 7.4200001
766.2854 -536.45007 -10.791637 15.87
767.42523 -536.65503 -10.855071 10.678274
767.77124 -537.29144 -10.950214 11.700715
789.72388 -536.37805 -10.487741 8.085
791.58655 -536.60034 -10.82406 9.3316669
792.25793 -536.61871 -11.065579 9.7555037
794.02478 -537.16809 -10.99464 7.9899998
794.66846 -537.33887 -11.155388 10.2
798.98468 -537.24249 -10.824471 6.9529514
801.51746 -536.93909 -10.993773 5.0999999
802.10712 -536.98505 -10.985447 5.9200001
804.0885 -536.86566 -11.316839 10.31
804.62567 -537.46338 -11.340184 15.24
806.86768 -536.62292 -10.977568 8.0100002
807.75653 -536.79053 -10.277649 6.726141
808.26886 -536.48694 -10.290133 5.8400002
832.18768 -536.32739 -11.162632 5.5197706
833.15015 -536.54791 -11.066151 7.8844509
833.88782 -536.69104 -11.055237 10.634973
855.47241 -537.28003 -11.257355 6.6778908
856.9231 -537.39746 -11.343137 8.4998083
861.39783 -537.44659 -10.591191 6.5300002
862.50305 -536.29944 -11.037287 7.0603514
863.81958 -536.46228 -11.044791 12.8025
864.60669 -537.2019 -11.011559 9.8399906
868.95618 -537.02332 -11.085171 5.5773439
900.18762 -537.48492 -11.290033 7.27
901.99384 -536.38037 -11.070614 12.830868
902.31915 -536.3913 -11.10043 12.508574
907.95569 -537.11346 -10.637097 6.9699998
908.74219 -537.46442 -10.625197 7.5999999
913.22119 -536.38171 -11.341934 8.7323456
914.02161 -536.69452 -11.333168 6.2449999
917.50134 -537.24939 -11.058335 9.3599997
918.46472 -537.50903 -10.773643 10.107246
927.53131 -537.52161 -10.968494 9.1199999
928.37073 -537.52209 -10.353069 8.6000004
684.20081 -535.94141 -10.348969 7.4299998
766.22974 -536.03833 -10.890408 5.8800154
766.88794 -535.90198 -10.915929 7.225369
785.1189 -535.0509 -11.033344 6.4350004
787.34814 -535.21704 -11.06194 6.2199998
788.48975 -535.41608 -10.930943 6.9214888
790.16357 -535.29651 -10.617289 9.2565632
790.83984 -535.14899 -10.702797 6.2184267
792.10016 -535.90399 -11.062297 7.6915994
793.78723 -535.37891 -10.233355 10.755
794.50684 -535.10828 -10.758328 10.43
801.29871 -535.35907 -10.902872 6.7753119
802.5368 -535.74701 -11.012507 7.2066665
806.9068 -535.32617 -11.032825 10.375
807.34015 -535.56573 -10.363572 10.049983
808.5752 -536.11572 -10.473414 5.9075003
809.8335 -535.11829 -10.640907 7.0300002
832.26593 -535.62842 -11.223604 5.2093921
833.02216 -536.03094 -11.231644 9.3401155
862.46838 -536.22491 -10.650682 7.0600109
863.86511 -536.22632 -11.206759 13.960151
864.90961 -536.15051 -11.390436 7.7283869
900.90735 -535.31769 -10.50418 8.2999992
902.13733 -535.63782 -11.121077 13.71059
902.3999 -535.79346 -11.295393 15.65521
910.93994 -535.31744 -11.419712 6.1599998
911.51215 -535.58899 -11.161896 5.3400002
913.49597 -535.91656 -10.983398 6.5100183
914.36517 -535.80688 -11.433601 4.2399998
767.13715 -533.81189 -10.369211 7.4524884
768.12793 -533.74121 -10.283124 14.659983
784.02264 -533.8877 -10.409764 7.5600853
784.73383 -534.27136 -10.865479 7.2660456
785.69897 -534.33624 -10.604287 8.6662779
787.18604 -534.88208 -11.014725 7.1900001
788.82288 -534.16962 -10.701612 7.0074191
789.6203 -533.80017 -10.717877 5.9782028
791.073 -534.77124 -10.891028 6.4607697
792.81445 -534.04431 -10.726347 8.1855564
794.10626 -533.9613 -10.68697 10.185293
794.84045 -533.96667 -10.210588 9.5237942
797.29639 -534.31836 -10.46664 6.7383733
801.37726 -534.40057 -10.976628 7.2766666
802.14893 -534.77838 -11.126245 7.5599999
803.74329 -534.1413 -10.699797 10.21
806.24023 -534.84521 -11.146469 8.71
808.18127 -534.46912 -10.728859 8.96
808.78156 -534.57733 -10.552529 8.4844437
900.97626 -535.00427 -11.367037 8.3000002
902.08691 -534.87018 -11.324961 9.8175001
902.38 -534.99292 -11.024456 9.46
910.70337 -534.70349 -11.317688 7.2600002
914.37177 -533.89807 -11.075634 5.1799998
915.29956 -533.90826 -10.7131 6.8699999
923.13647 -534.14899 -11.388866 6.2599998
695.849 -532.67297 -11.067487 19.48
767.39893 -533.65991 -10.451105 9.9899998
768.24121 -533.06378 -10.290101 13.826667
770.58093 -532.51953 -11.082047 6.6700001
774.75171 -532.53918 -10.620872 10.12
781.4574 -532.83459 -10.789558 7.9099998
782.46448 -532.8194 -10.659716 6.5173726
783.64227 -532.88763 -10.813938 7.3400254
784.73456 -533.34576 -10.846171 7.8335609
786.35681 -532.66174 -10.570683 7.7637239
787.56702 -532.73157 -10.601009 6.7163892
788.95874 -532.83264 -11.128016 7.212986
790.27856 -532.50989 -10.625383 5.8256516
791.41199 -532.50928 -11.042051 9.5550976
792.80273 -532.52667 -11.162258 9.3999996
793.71619 -532.61438 -10.716875 7.4750004
794.46875 -532.76379 -10.579672 7.2079153
795.63953 -532.67737 -11.003105 11.385937
797.36603 -533.65063 -11.11218 7.4450002
802.58801 -533.18042 -11.154383 9.9524994
803.23987 -533.48535 -11.36881 11.61
869 -532.51453 -10.658982 6.1999998
869.74005 -532.70319 -10.39603 12.140862
903.3902 -533.49396 -11.117963 8.8999996
919.98352 -532.91937 -11.265829 6.3899999
920.78888 -533.14246 -11.261389 7.4441662
922.49951 -533.72614 -11.426989 5.6599998
695.56293 -531.90955 -10.621002 20
767.53674 -532.18896 -10.966919 6.6599998
767.87726 -531.99207 -10.338962 6.6599998
770.08453 -531.80353 -11.154142 10.93
770.46075 -531.90869 -10.769652 8.3554173
773.74103 -531.25055 -11.142593 13.55
774.315 -531.79626 -10.63559 14.25
781.41693 -531.74707 -10.203483 6.04
782.09076 -532.28271 -10.247219 8.2399998
783.27228 -531.95758 -10.624594 5.2124691
784.35986 -531.38605 -10.562859 7.1866665
786.26385 -531.83844 -10.707035 8.2094097
787.43933 -531.41797 -10.856187 6.0358381
788.15704 -531.66302 -10.68557 8.1801996
789.56616 -531.28564 -10.931906 7.2020435
791.67664 -531.29053 -10.986765 10.727182
792.65436 -531.57507 -10.261143 8.8422871
793.77197 -532.19415 -10.632296 7.868403
794.90149 -531.56458 -10.755278 10.489127
795.59082 -532.08038 -10.765925 10.92
867.6991 -531.6106 -10.753033 7.4190235
868.94958 -531.26978 -10.421532 10.312392
869.92419 -531.38037 -11.339806 6.6398897
910.88562 -532.08643 -10.278801 6.9499998
911.71252 -532.39258 -11.21406 5.346797
769.61707 -530.84235 -10.937078 9.4799995
773.87854 -531.11664 -10.727152 13.55
773.97809 -531.01459 -10.419486 13.55
782.70166 -529.94031 -11.156508 6.7800002
784.05603 -529.93054 -10.942206 8.7199993
785.19067 -529.96851 -10.877942 10.769663
785.78577 -530.28967 -10.602407 8.7500181
787.48584 -529.98236 -11.14136 11.788567
788.99585 -530.28174 -10.975531 8.2765903
789.3349 -530.12854 -10.776699 8.5253649
791.14514 -530.76477 -10.252844 9.5576801
791.9917 -531.02539 -10.264565 10.719955
794.12323 -530.68085 -10.405625 8.5414581
794.33673 -530.7829 -10.355913 9.0524998
867.65564 -531.03625 -10.294854 12.27
868.68896 -530.4718 -10.437248 5.9604735
869.47729 -530.83545 -10.427082 5.8087597
870.59869 -530.96521 -10.47431 10.07
902.11829 -530.54242 -11.354817 9.0299997
902.79742 -530.0531 -10.293365 7.21
761.87073 -529.74542 -11.431377 7.6700001
778.40198 -528.66589 -10.32037 7.210145
781.46411 -528.87439 -11.388525 7.8000002
782.1825 -528.93982 -11.334036 8.5310421
783.82532 -528.66333 -11.374823 8.9945335
784.66681 -528.92657 -11.206072 7.6338062
785.55176 -529.50031 -10.455215 11.181785
787.53943 -529.63068 -10.731273 8.9541502
788.62311 -529.33417 -10.692852 7.3330984
789.25995 -529.82617 -10.707047 9.1583595
790.7262 -529.33289 -11.11774 7.3400002
831.08002 -529.00073 -11.22304 11.03
832.30109 -528.86597 -10.849633 7.4500017
832.39062 -528.85675 -10.930732 7.4499998
868.78296 -529.55408 -11.109056 10.2
870.36731 -528.76343 -11.240405 9.2815962
870.83582 -528.80548 -11.223936 12.602777
883.16986 -528.77252 -10.796704 7
884.22656 -528.93591 -11.166669 7.8375988
884.75726 -528.89087 -10.467087 6.8677754
901.97583 -529.79309 -10.30697 6.5999999
902.72192 -529.86829 -10.350052 7.21
761.93286 -527.46985 -10.337405 5.9299998
763.68262 -527.92407 -10.697824 7.6844368
764.44678 -527.60303 -10.448914 7.5300102
771.31689 -528.08759 -10.581394 8.4099998
772.04993 -527.4552 -10.292794 11.244999
773.59576 -527.41547 -10.849052 11.65
776.43774 -528.24469 -10.633251 10.49
777.63739 -527.88489 -10.59203 10.665518
777.8327 -527.96588 -10.833886 9.2098055
780.06787 -527.81042 -11.419207 7.6399999
781.47113 -527.83447 -11.210942 9.0301571
781.79773 -528.12323 -10.87801 8.7860794
783.99744 -528.51782 -11.363013 8.8703127
784.21362 -528.42755 -10.702144 9.0124998
787.164 -528.5451 -11.158231 7.7800002
788.96698 -528.54205 -10.639608 7.1322217
789.80298 -528.36713 -10.716039 7.6732817
791.07324 -528.05859 -10.244237 7.0661111
831.08105 -527.5246 -10.506506 10.499879
831.60522 -528.32251 -10.782774 10.857309
832.37787 -527.39984 -10.318826 8.1899996
868.90295 -528.53809 -10.410813 9.8199997
869.76605 -528.30396 -11.309228 11.55368
871.33557 -527.79492 -11.429998 11.559999
883.04114 -528.36261 -11.026312 6.27
884.17212 -527.62341 -10.854589 5.4023151
885.66974 -527.40985 -10.988903 7.1160712
885.99628 -527.8374 -11.044424 6.9700003
894.39502 -527.41748 -11.358786 7.5599999
895.19971 -527.72498 -11.35737 9
896.00433 -528.03253 -11.355955 8.6800003
902.81805 -528.48273 -10.883717 5.9547639
755.92242 -526.32123 -10.281325 8.6121597
762.42664 -526.74713 -10.825105 13.458124
763.33228 -527.16052 -10.333657 12.507622
763.81433 -526.95819 -10.386812 12.28125
772.5498 -526.78955 -10.236532 11.147968
773.34668 -526.98486 -11.214382 8.4524784
777.23743 -527.30945 -10.443721 10.454453
780.7403 -527.32971 -10.678893 7.6399999
831.7774 -526.7135 -11.358355 9.6099997
884.2168 -526.47198 -11.183807 10.899703
885.28632 -526.31647 -11.393348 8.166748
885.92456 -527.09857 -10.733948 8.75
894.39355 -526.45966 -11.176592 5.5
895.35071 -526.35071 -11.144859 6
909.74469 -526.32526 -10.232098 6.3099999
914.53308 -527.07172 -10.316805 7.25
915.36542 -527.29504 -10.300613 6.6300001
754.36121 -525.50708 -10.278889 5.2562037
755.33771 -525.74445 -10.287173 8.4786396
756.46234 -525.44562 -10.356079 9.9099998
759.86017 -525.19385 -10.30715 7.1900001
760.52307 -525.81055 -10.357771 6.6599998
763.10132 -526.02008 -11.000175 8.3299999
764.55341 -525.03253 -10.771429 5.9299998
765.65869 -525.2428 -10.796074 6.801796
766.36401 -525.73639 -10.863565 6.5500002
831.28052 -525.93439 -11.364065 8.4799995
857.17419 -525.84198 -11.409151 4.8000002
883.97577 -525.93317 -11.128592 6.147872
885.67578 -525.94183 -10.683494 8.1900005
885.77374 -525.90289 -11.007482 8.1785927
893.51801 -525.92834 -11.365665 6.2499943
895.31421 -526.07379 -11.113043 6
908.31006 -524.86615 -11.121342 5.8800001
909.77759 -525.05676 -10.791269 5.7099934
909.9502 -525.95581 -10.449168 5.5100002
911.60803 -525.29785 -11.092741 6.6199999
912.54205 -525.08582 -11.063956 6.23
710.64862 -524.16296 -10.690839 8.5200005
755.3468 -524.58368 -10.201232 6.3800001
757.21143 -523.67749 -10.672135 6.1500001
758.35925 -523.84619 -10.343316 6.7952347
758.71448 -523.86255 -10.988338 8.0050001
764.74573 -524.73474 -11.03525 5.9299998
765.32434 -524.8053 -10.980727 6.71
887.97382 -524.29675 -10.313876 7.6900001
889.01154 -524.41461 -10.657994 8.4700727
890.38477 -524.11145 -11.23884 8.3900003
891.21326 -524.34894 -11.231999 7.1500001
896.03784 -523.8689 -11.262884 5.5100002
908.31934 -524.77533 -10.927277 5.8800001
908.94226 -524.63403 -10.949951 5.9999957
911.02484 -523.6955 -10.278767 5.73
683.77545 -522.67786 -10.365458 7.9200001
756.82037 -523.06219 -10.589751 4.9145007
757.83752 -523.12732 -10.373517 6.1660414
758.75568 -523.33148 -10.814242 7.8849998
762.35767 -522.61377 -10.671887 7.1900001
762.51892 -522.55072 -10.595612 7.1900001
838.11835 -522.65588 -11.099229 7.1791668
888.13409 -522.59338 -11.038124 7.8312502
888.96313 -522.5202 -10.935987 9.7581253
890.41919 -522.58868 -11.013027 10.994524
891.39429 -522.86151 -11.193752 11.555069
893.52069 -522.34967 -11.267297 6.2199998
894.96912 -522.70422 -11.309893 7.2997069
896.00757 -523.54346 -11.103992 5.5100021
909.12213 -522.91626 -10.271493 8.3699999
909.97137 -523.146 -10.332071 6.6191673
683.20898 -521.75372 -10.980221 8.7799997
684.18115 -521.70752 -10.51863 8.7799997
754.72778 -521.39746 -10.839196 6.1999998
754.90399 -521.21655 -11.150553 6.1999998
762.40442 -521.77893 -10.709535 5.2399998
762.55981 -521.71277 -10.636103 5.2399998
836.68127 -521.82654 -10.979942 8.1075001
837.96741 -522.06812 -11.053106 8.0749998
888.18384 -521.849 -10.775688 7.2475796
888.87762 -521.33917 -10.339395 8.4044504
890.10693 -522.03198 -10.474003 12.516731
891.93073 -521.62006 -10.922235 9.2800007
892.2171 -521.13306 -10.454288 12.379288
893.82043 -522.02679 -11.288239 6.8493395
895.07214 -522.11383 -11.434021 4.6500001
908.61047 -521.42181 -11.053064 7.1399999
909.16229 -521.67041 -11.01122 6.2899995
912.30664 -521.90314 -10.903561 7.1100001
914.47333 -521.56537 -11.362269 7.2700005
682.99951 -520.90747 -11.066096 7.3699999
684.00403 -520.8678 -10.440741 7.3699999
754.40009 -520.5163 -10.46214 8.0502949
755.02094 -520.76575 -10.401197 6.1723223
771.87042 -519.77698 -11.190714 8.75
887.82312 -520.6825 -10.336782 6.0241585
889.34845 -520.08295 -10.499924 7.849987
890.53149 -519.99878 -11.272141 13.372292
892.04108 -520.5899 -11.269464 8.1557522
892.59814 -520.3266 -10.599521 11.350699
893.52356 -520.86316 -10.607376 8.5300026
901.84894 -519.9541 -10.753119 8.497613
907.26117 -520.12476 -10.302443 6.1265144
908.19092 -519.88141 -10.43246 7.4835763
909.3042 -520.32733 -11.086596 7.0208983
910.14459 -520.41882 -10.230353 5.3299999
682.09113 -519.435 -10.242017 9.2799997
683.1275 -519.19843 -10.442853 8.9808321
684.21649 -518.99878 -10.709252 8.3249998
721.77576 -518.58319 -11.33655 9.4700003
754.72168 -519.65625 -10.453785 4.9350004
754.96387 -519.55261 -10.648608 4.8000002
771.32495 -519.01611 -11.367729 6.1599998
771.90796 -519.26385 -10.705222 7.4544082
846.33411 -518.58923 -11.353174 8.6099997
846.44641 -518.62598 -10.869951 8.6099997
870.1767 -519.41089 -11.408266 6.5412502
870.50031 -519.31543 -11.347136 6.98
873.49048 -518.78119 -10.196549 6.9899998
885.49768 -518.97021 -10.999075 5.74125
886.15607 -519.06775 -10.928221 5.0815625
887.86243 -518.92542 -11.218199 7.5021825
889.01807 -519.44904 -10.560534 9.0349998
890.52991 -518.625 -11.391191 16.09231
891.62164 -518.88373 -10.885193 13.442144
892.94897 -518.68835 -10.517057 11.312519
894.09851 -519.19598 -10.843302 5.1000023
901.56 -519.54254 -11.074988 11.496667
908.03064 -519.74146 -10.285445 7.4932265
908.82837 -518.98932 -10.202251 8.4869823
910.01251 -519.31769 -10.881394 5.1100001
681.79102 -517.65778 -10.9881 12.51
683.07581 -517.67645 -10.898121 11.50625
684.05804 -517.77972 -10.636506 10.022223
721.75073 -517.56665 -11.073458 10.06
722.19397 -518.04944 -11.13051 9.2875004
760.21222 -517.52759 -10.472289 6.1199999
845.66626 -518.25256 -10.728935 8.6499996
870.4823 -517.93176 -10.950337 5.9499998
871.6814 -517.70117 -11.215498 12.047749
872.37213 -517.37646 -10.593194 11.838292
885.09546 -517.83875 -11.198586 6.9599915
886.85376 -517.74249 -10.623629 6.253942
888.92291 -517.7074 -11.175147 6.844841
890.74072 -517.79486 -11.253743 14.165802
890.95203 -517.81036 -11.317627 16.450285
892.84412 -517.62598 -11.355787 11.864948
894.32959 -517.45575 -11.190229 11.275936
894.87085 -517.49994 -11.358186 7.0799999
902.01013 -517.33057 -10.29066 6.21
682.26532 -516.69989 -10.948831 10.1
683.17761 -516.48914 -11.01363 10.1
759.55432 -516.97266 -10.436869 7.0900002
869.98566 -516.19556 -10.701801 6.6900001
871.70264 -516.42267 -11.095221 12.747274
872.44598 -516.79071 -10.422256 12.036209
873.27539 -516.61676 -11.368977 11.766251
882.15186 -516.06921 -11.152264 6.3800001
885.2561 -516.4151 -10.808596 6.4700003
886.31097 -516.06091 -11.041153 5.4212856
888.23444 -516.12378 -10.967256 6.4802027
889.31128 -517.02637 -10.768616 13.092484
890.41266 -517.04895 -11.048871 12.181253
891.23248 -516.72925 -11.405329 10.485037
893.0415 -516.95172 -11.335457 12.76991
893.91553 -516.82544 -11.188672 12.544322
901.76263 -516.80109 -10.489743 5.8999691
902.42047 -517.16364 -10.266433 4.5799999
871.21069 -515.07495 -11.431814 6.8600001
872.23425 -515.79199 -11.196201 12.597187
885.2099 -515.91553 -11.211159 6.4681635
886.34131 -515.91644 -11.075591 5.4200001
887.78766 -515.85413 -10.987888 8.2299995
889.12921 -515.88721 -11.233875 9.3463326
889.57117 -515.91602 -10.860978 9.4200001
901.45349 -515.93964 -10.343985 7.1199999
681.76202 -513.92682 -10.731336 8.3933334
682.9873 -513.95563 -10.801479 8.2250004
721.61743 -513.4104 -10.630538 9.6499996
726.48529 -513.90601 -10.289713 8.0799999
868.10352 -514.19818 -10.365398 6.9899998
880.64789 -514.15063 -10.769802 6.3400002
881.22998 -514.25995 -10.819889 6.7970109
884.66052 -513.81873 -10.190434 7.3500004
900.56006 -513.46118 -10.34748 6.3718524
681.09454 -512.60187 -10.598973 8.1700001
682.14838 -512.81122 -10.695938 8.2316666
683.45404 -512.99573 -10.54302 7.2675066
683.75928 -513.08521 -10.295691 8.4616661
721.27643 -512.71332 -11.103213 11.161111
722.75391 -512.61658 -10.426529 9.6499996
723.67908 -512.57751 -10.305605 11.3
724.52234 -513.09546 -10.39073 6.3299999
726.43414 -512.94537 -10.289778 6.8800001
735.45074 -512.53033 -10.578202 8.0915556
737.1084 -512.3255 -10.184437 8.2200003
822.96246 -512.16742 -10.627062 10.37985
824.61023 -512.15369 -10.885569 8.795228
825.8811 -512.20374 -10.247277 5.1676064
868.6095 -512.97565 -10.263956 8.3299999
870.14996 -512.18018 -10.235661 9.6092243
871.09625 -512.69244 -10.24715 8.1596918
881.31372 -512.16968 -11.017494 6.8462496
900.32465 -512.60052 -10.719783 6.4250007
901.96521 -512.57751 -10.528204 6.762053
671.03326 -511.15683 -10.672262 7.29
681.81378 -511.45508 -10.544639 6.0799999
682.75861 -511.3566 -10.576861 6.0799999
722.34363 -511.85559 -10.551749 11.269444
723.72827 -511.23325 -10.761719 11.191667
724.9068 -511.30798 -10.470503 9.6499996
726.57446 -511.36401 -10.448622 9.6350002
727.0979 -511.56522 -10.716747 17.42
734.4989 -511.01965 -10.422943 12.158823
735.617 -511.5369 -10.867552 9.3903084
736.00763 -511.63574 -10.963169 5.8999996
795.13879 -511.16058 -11.168573 8.9799995
795.79156 -511.75418 -10.959988 8.1599998
822.15942 -511.92554 -10.517557 6.7800002
823.17249 -511.98709 -10.27432 10.380028
824.29919 -511.08505 -10.258943 12.404375
825.1283 -511.84415 -10.27264 12.779062
852.58398 -510.89566 -10.935776 9.3012505
853.27814 -511.29175 -10.433467 9.3225203
854.11359 -511.50146 -10.427802 10.226975
868.8385 -511.03766 -11.184361 5.0711918
870.11505 -511.78137 -10.248468 8.7511749
880.39893 -511.92334 -10.561097 7.5552158
880.90967 -511.99673 -11.143444 7.1369972
884.99725 -511.40207 -10.340885 7.3699994
900.62573 -512.11414 -10.573154 5.7546482
902.18762 -511.15533 -10.201146 8.5989857
903.11932 -511.23047 -10.410136 9.4288034
904.18494 -511.4856 -10.353951 6.7798853
904.87109 -510.90015 -10.233009 6.0538673
670.87354 -510.30396 -10.855034 5.4000001
681.51245 -510.73944 -10.903179 6.6100001
682.58508 -510.51297 -10.811335 6.6949997
724.27533 -510.71701 -11.23765 11.5
724.71429 -510.46451 -10.34321 11.150675
726.67188 -510.82117 -10.721635 12.62
733.03931 -509.91898 -10.909213 7.660059
734.50201 -510.11005 -10.695736 6.2700005
734.7359 -510.39053 -10.645237 7.8340626
796.2572 -510.36011 -10.426932 8.3649998
823.4115 -510.83167 -11.055934 11.37
850.5697 -509.7077 -11.294922 5.855
852.51367 -510.54156 -10.466882 10.82197
852.97638 -509.66589 -11.392448 11.449667
901.95007 -510.61023 -10.298254 5.9399996
902.82587 -510.81497 -10.215011 6.3878727
904.00598 -510.8259 -10.188435 7.3098679
904.83099 -510.80621 -10.175412 6.0599999
681.93744 -508.94788 -11.068446 9.3506937
683.37262 -508.79602 -10.888538 5.6200004
732.78528 -509.19928 -11.287932 9.04
793.08472 -508.42145 -11.247214 10.65
794.85431 -508.33063 -10.639988 6.7451553
796.73102 -508.51849 -10.355383 10.08967
797.74426 -508.5499 -10.390311 7.2216768
808.2265 -508.47491 -10.827459 10.67
809.4502 -508.60538 -10.290907 9.9467278
810.65942 -508.435 -10.243992 15.829048
810.80042 -508.47559 -10.211571 14.88125
850.67151 -509.54538 -11.020121 5.855
862.10291 -508.43457 -11.009523 6.712266
862.94861 -508.58099 -10.989696 7.29
882.12268 -509.42914 -11.39566 5.96
900.28967 -509.44055 -10.839342 6.249999
901.62024 -509.35352 -10.222668 4.9156251
902.47083 -508.92303 -10.262256 5.2399998
904.9884 -508.84857 -10.189487 5.4200001
906.8775 -508.32657 -10.337782 7.3099999
681.8136 -507.75342 -11.292805 7.3400002
682.84186 -508.23419 -10.924531 7.5100002
714.27209 -507.68701 -10.603409 8.5299997
746.7312 -507.53278 -11.232059 9.8599997
747.23181 -507.13751 -11.418013 11.68
760.70398 -507.35651 -10.448226 7.6999998
761.52997 -507.21094 -10.38397 7.9400001
791.64978 -507.24017 -10.479342 10.432172
792.70142 -507.11218 -10.602713 10.849691
793.70471 -507.33017 -11.176928 10.846413
795.37061 -507.55841 -11.060457 9.2976427
796.72791 -507.43677 -11.333938 11.871552
797.27368 -507.33105 -11.388277 10.699997
808.1991 -507.59756 -10.748248 8.8132496
808.95752 -507.55508 -10.410017 10.567006
809.73541 -507.80542 -10.350432 12.226976
811.70135 -507.29642 -10.525529 9.670928
844.6839 -507.09509 -11.029987 9.7308273
845.98853 -507.07684 -10.919814 10.045172
847.12238 -507.12283 -11.275159 9.0423784
847.67224 -507.06186 -11.342932 9.1000004
859.57965 -507.13321 -11.1886 6.6314812
860.4964 -507.40906 -11.148537 4.7800002
862.02905 -508.28928 -11.097183 6.7101421
882.91418 -507.98114 -10.623827 6.6700001
883.85193 -508.15936 -10.776451 4.5599999
906.88208 -508.27509 -10.404219 7.3099999
907.69421 -508.06601 -10.286167 6.79
679.30786 -506.15308 -10.747475 7.8233333
680.34241 -506.5983 -10.686512 8.6700001
681.58063 -506.36212 -11.228521 7.5250001
713.82867 -506.95184 -10.528138 5.4099998
746.96069 -506.14371 -11.277498 12.378241
748.69873 -505.99158 -11.362213 11.68
759.74969 -506.23566 -10.668621 7.367435
760.5918 -506.26651 -10.502984 7.0480781
762.12268 -506.17923 -10.347095 12.139999
762.84161 -506.65228 -10.384076 10.65
773.89331 -506.32324 -10.474321 11.09
774.17383 -506.19833 -11.190887 10.403581
787.32434 -506.35205 -10.769749 10.199217
787.93231 -506.16852 -11.414717 9.3800001
790.87909 -506.12177 -11.351911 9.2559948
792.90137 -506.63617 -10.868156 9.1910763
793.66809 -506.80725 -11.356098 10.365
795.39862 -506.97205 -10.910803 4.7509375
796.77917 -506.88232 -10.760904 7.6500001
797.98865 -505.82986 -10.454339 12.409948
798.52667 -505.87991 -10.334742 9.6400814
810.69812 -506.47229 -11.149953 13.243261
810.84631 -506.53552 -11.379175 11.004999
812.12598 -506.87784 -11.334328 10.68
845.01782 -505.9996 -11.255397 8.4289246
845.72839 -505.91684 -11.085496 11.626638
847.06183 -505.81335 -11.343085 13.334282
847.90344 -505.9845 -11.227583 12.384567
851.42157 -506.25662 -10.627667 7.3899999
851.5282 -506.15445 -10.339092 7.3899999
858.89966 -506.24634 -11.129993 5.6587849
859.75238 -506.37433 -11.114126 6.1378517
678.4574 -505.15808 -11.19165 6.3400002
679.51959 -505.07101 -10.707794 6.3677773
680.48737 -505.58676 -10.734087 7.3100004
681.93909 -504.76007 -11.024508 5.6100006
746.35004 -505.61023 -10.911133 10.52
748.09668 -504.94992 -10.861768 10.829999
748.80042 -504.61636 -11.123647 12.82
759.52826 -504.82706 -10.407778 8.0572004
760.565 -505.10474 -10.506824 8.914238
761.66815 -505.29633 -10.412237 9.8498573
781.03815 -504.60938 -10.732785 7.7391143
782.13861 -504.69101 -10.985135 9.1167402
783.38672 -504.79684 -10.856314 10.241641
787.5592 -505.12659 -11.324736 9.0774994
788.06958 -505.5592 -11.339998 17.575979
789.84912 -504.68909 -11.039378 9.7777777
792.60071 -504.57202 -11.424316 5.54
794.15546 -504.54626 -11.366318 10.951641
794.33929 -504.61475 -10.992438 10.32077
795.78198 -505.11548 -10.909967 8.4322815
797.94873 -505.61832 -11.001176 9.7298717
798.95337 -504.686 -11.324841 10.359723
799.36395 -505.68561 -10.357561 6.8699999
844.8136 -505.69641 -11.044537 5.5549998
845.6582 -504.87845 -11.378401 7.9322443
847.03204 -505.43747 -11.265553 11.761008
848.00769 -505.38135 -11.007254 7.9499998
849.4574 -505.18079 -10.352968 6.7750001
851.30792 -505.3689 -10.560431 7.7687502
852.21014 -504.91226 -11.013661 9.4820566
853.02875 -505.2464 -11.229769 8.0687523
856.28918 -505.06934 -11.419479 14.079583
680.70563 -503.84702 -11.012932 7.3811111
681.7619 -503.68942 -10.763095 7.4716668
745.20593 -503.34644 -10.740385 11.85
748.33386 -503.89624 -11.067251 10.52
748.94983 -504.4538 -11.27844 12.82
752.24036 -504.05545 -10.728295 5.9699998
752.86865 -504.04556 -10.712086 5.6022205
758.48706 -504.24713 -11.115094 10.625
759.82434 -504.3548 -10.468433 8.2160854
760.77612 -503.79547 -10.37414 11.684961
761.53162 -504.49823 -10.299709 11.02
775.73822 -503.55069 -11.327923 11.630832
778.95093 -503.8924 -10.979548 11.074093
779.08899 -503.91309 -11.258614 10.987
780.70056 -504.33002 -10.951077 8.7302246
781.77563 -504.28458 -11.035795 5.7412605
788.927 -503.53616 -10.590774 6.7450328
789.80688 -503.3244 -11.358368 9.5086851
790.84485 -503.30536 -10.87892 17.741371
792.25037 -504.30072 -10.880545 7.7479486
794.07892 -504.47134 -11.23018 10.939997
794.62305 -504.03503 -10.802182 10.548828
795.73425 -504.46274 -10.525296 8.3800001
797.39288 -503.53177 -11.142212 6.96
849.8595 -503.34064 -10.774132 8.0344372
850.2948 -504.15433 -10.970044 7.0015106
852.45569 -503.77798 -10.428493 10.044214
852.95569 -504.4649 -11.254782 8.3412495
854.2738 -503.96457 -10.727789 9.4899998
856.28052 -504.33215 -11.404217 10.02
679.6521 -502.37717 -10.395294 7.2399998
679.98364 -502.32922 -10.479338 7.2231245
681.27222 -502.09991 -10.783899 6.6100001
742.54968 -501.97394 -11.21335 7.4499998
744.09985 -502.05316 -10.405205 10.799277
745.245 -503.04639 -10.317078 11.835011
751.43005 -502.63004 -10.19836 9.9700003
752.45782 -502.66589 -10.231262 6.4099998
754.67236 -502.6644 -10.478263 6.1200004
755.24908 -502.67749 -10.646635 7.858201
759.52875 -502.03989 -10.721588 5.7199998
760.8418 -502.45264 -10.370343 6.7066441
761.28406 -502.0285 -10.768366 7.5700002
765.88245 -502.02374 -10.947638 8.9283752
776.35168 -503.11234 -10.64468 13.624166
776.57642 -502.84113 -10.952974 12.827465
785.94171 -502.73026 -10.889198 8.7141962
786.89136 -502.31143 -10.672385 8.25
788.56201 -503.16788 -11.380045 9.6899996
790.0282 -502.51062 -10.512165 17.536667
790.90021 -502.57968 -10.356481 13.141477
791.94891 -503.05206 -11.364703 11.074375
797.50134 -502.93787 -11.25689 4.8699999
827.87347 -502.01044 -10.857656 10.19
828.73828 -502.1076 -10.594439 6.6599998
835.80078 -501.98294 -10.547691 5.6199999
849.90094 -503.15149 -11.210076 8.4387007
851.40302 -502.95535 -10.231145 8.2920303
852.39417 -502.43744 -10.827866 10.761528
852.8208 -502.60181 -11.215765 12.926394
678.55048 -501.54321 -10.702102 9.46
679.34558 -501.55762 -10.463295 9.46
680.69385 -501.39844 -10.569384 9.2000008
681.91608 -501.3765 -10.54827 9.5603704
742.06732 -501.06464 -11.171577 9.3800001
742.57404 -501.91238 -11.29353 7.4499998
744.39368 -501.19073 -10.707367 9.4389582
744.89111 -501.19754 -10.891253 10.74
751.0188 -501.17441 -10.99189 14.519926
751.25946 -500.94128 -10.722578 13.635
753.15479 -500.74969 -11.391684 9.9700003
754.29199 -500.88062 -11.278166 6.7787499
756.03259 -501.14417 -10.792948 6.4364586
756.60693 -501.15863 -10.841248 8.2614059
759.7193 -501.39099 -11.125789 8.0766668
761.15991 -500.98016 -10.692282 7.6352458
761.349 -500.76938 -10.347834 7.3701954
765.81769 -501.84207 -11.343631 10.360151
786.58026 -501.68927 -11.185209 8.04
786.69312 -501.62027 -11.167918 8.04
793.21588 -501.28577 -10.337456 10.566667
812.00092 -501.17139 -10.619973 14.68
813.20361 -501.27325 -10.378786 13.130295
813.33801 -501.24673 -10.561396 13.13
818.04608 -500.79028 -11.33718 6.71
818.93054 -500.73761 -11.153946 10.39
827.95532 -501.89789 -10.2985 10.19
828.96484 -501.90082 -10.237228 6.6599998
830.92834 -500.7453 -10.240005 7.9299998
834.90698 -500.84805 -10.867077 11.050782
835.96466 -500.75623 -10.452572 12.003504
837.3905 -500.89664 -10.282341 14.25
838.24347 -501.01645 -10.254104 6.4035788
839.04297 -501.51385 -10.273673 12.224865
840.63245 -501.1619 -10.549381 9.248333
841.37164 -501.32764 -10.551825 8.7492542
845.48468 -500.88477 -11.351782 6.6519794
848.30389 -501.11697 -11.127983 7.7866669
850.03455 -501.89417 -11.365614 13.92
850.88135 -501.5094 -11.275469 7.4911747
852.2207 -501.10864 -11.263525 8.8926163
852.74084 -501.85541 -11.013584 15.497499
679.52454 -500.6571 -10.36746 8.5600004
680.91736 -499.82193 -10.555134 6.5176392
681.93201 -500.13007 -10.852131 8.3783913
743.41339 -500.08331 -10.842251 9.3800001
744.03052 -499.69012 -11.302188 9.0517712
745.58575 -500.22037 -10.872059 9.795001
751.35718 -500.68857 -10.85257 10.98
753.24725 -500.66876 -11.299486 9.9700003
756.53265 -500.43411 -10.891263 9.6599998
758.51862 -500.5871 -11.394103 6.4200001
759.0105 -500.19034 -11.259447 10.74
760.35535 -500.12262 -10.221407 8.4035854
761.26495 -500.2403 -10.597944 8.0200005
812.56348 -500.67041 -10.394176 14.68
818.32129 -499.79102 -10.93144 16.22319
819.06592 -499.58862 -10.768236 15.384295
827.79645 -499.43152 -10.818935 9.3000002
829.63586 -499.75452 -10.190136 9.8700199
830.72632 -499.49884 -10.452945 7.7288394
831.50452 -499.45105 -10.22286 7.5905643
832.74915 -499.94904 -10.240799 8.2000008
834.22778 -499.50763 -10.493266 11.826573
835.13525 -499.64478 -10.574243 12.0975
836.5921 -499.93423 -10.490375 9.7375069
838.57758 -500.52063 -11.33544 10.470354
838.99866 -500.38739 -10.973935 10.324999
840.92822 -500.21655 -11.165804 9.2605247
842.24695 -499.48749 -10.358893 6.6400003
842.84412 -499.534 -10.329324 7.6599874
845.29285 -500.6637 -11.006263 6.8188887
679.79761 -498.27719 -10.288757 9.0900002
680.04089 -498.31909 -10.33976 8.8610649
681.93536 -498.37463 -10.444293 9.4205027
730.05426 -498.39032 -10.305929 12.199356
732.52295 -498.42557 -10.281869 11.543125
733.745 -498.23413 -11.207294 13.59
735.12878 -498.29645 -10.237648 10.77
736.04224 -498.22211 -10.963144 9.1149921
743.12921 -498.52921 -10.480163 8.3623047
743.6875 -498.39026 -10.395565 6.8000002
745.70825 -498.62112 -10.837471 10.490833
746.66528 -498.2905 -10.707476 8.2340622
752.27661 -498.47345 -10.433945 10.179923
752.69464 -498.42148 -10.721162 10.75
759.56635 -498.27652 -10.830306 11.116977
761.05237 -498.15887 -11.017098 18.129997
761.88177 -498.46832 -11.116092 13.089973
819.15112 -498.28897 -10.81702 14.964516
819.88354 -498.59998 -10.885892 12.98209
822.6283 -498.31732 -10.544702 9.0248833
823.50903 -498.4689 -10.360428 10.97
828.33044 -498.21906 -10.528745 11.700937
829.22449 -498.20831 -10.462864 10.853138
830.71509 -498.38715 -10.549637 16.554171
831.72394 -498.76132 -10.339436 9.8968229
832.99237 -499.07153 -10.558006 13.104873
834.08392 -499.33765 -10.880704 15.484814
835.87622 -498.82187 -10.662186 14.205112
836.83813 -498.69949 -11.224736 9.7226572
838.0448 -498.40598 -10.728757 13.686136
839.3407 -498.15775 -10.670748 11.612893
840.40686 -498.65784 -10.208229 8.2258387
841.94928 -498.76016 -11.415465 10.446014
843.23199 -498.89746 -11.248516 6.9099998
853.74982 -498.27673 -11.300751 9.3216667
679.14246 -497.88104 -10.363342 7.9400001
680.99377 -497.61572 -10.291748 9.6100006
681.80109 -497.41211 -10.556964 9.6099997
730.18793 -497.13861 -10.258648 10.12
731.73877 -496.95355 -10.351048 13.048014
732.83014 -497.07672 -10.322339 15.065491
734.00879 -496.93658 -10.355381 14.988953
734.97668 -497.0477 -10.283827 9.6931696
736.05615 -497.42496 -11.221658 11.51102
738.11304 -496.93716 -10.30704 15.034732
738.74268 -497.06799 -10.358325 9.650897
742.12354 -497.29102 -10.262399 9.6599998
742.98413 -497.29877 -10.229103 13.714954
744.54608 -496.93652 -10.927835 6.5300002
745.91992 -497.31625 -10.45384 10.411273
746.79376 -497.65897 -10.384989 8.8110714
747.67969 -497.26379 -10.394772 10.796833
751.00049 -497.1806 -11.021463 8.5699997
751.74445 -497.27164 -10.413396 7.883471
752.47296 -497.73688 -10.608591 10.02
758.52771 -497.51434 -10.844814 7.3298969
759.48615 -497.86682 -11.00186 10.397564
761.14551 -498.0282 -11.371455 10.553171
761.79486 -496.93268 -10.878394 15.468945
809.04272 -497.54834 -11.273397 7.7449999
811.99609 -497.66885 -10.647779 13.208321
813.16895 -497.15234 -10.711176 17.817566
814.14026 -497.2233 -10.241762 11.760279
814.90369 -497.20053 -10.244407 8.2200003
816.92554 -497.51682 -11.105235 10.481037
817.72412 -497.08765 -10.874596 14.44664
819.26611 -498.07651 -10.800436 13.896667
820.13452 -497.65686 -10.739144 10.851629
821.72058 -497.05029 -11.149553 9.8840799
822.70142 -496.93478 -10.7686 9.8804798
824.72388 -496.99374 -10.19541 10.444279
825.83807 -497.29498 -10.504892 11.900643
827.01337 -497.50333 -10.360295 13.257649
828.30988 -497.84122 -10.465279 10.412509
829.34717 -498.13239 -10.264089 10.0718
830.13794 -497.79251 -11.263013 10.536382
832.27222 -496.89493 -10.293927 11.806175
833.29297 -497.13562 -10.633884 17.78067
834.75171 -497.23788 -11.147427 10.384764
835.83594 -497.63364 -10.859028 11.122683
837.02179 -497.73837 -10.887559 15.889028
838.33704 -497.89844 -10.700938 14.215921
839.49121 -498.12946 -10.618694 12.526539
677.29071 -495.621 -10.489444 7.8400002
678.02081 -496.42072 -10.265938 5.9499998
681.76355 -496.12482 -10.735542 6.6761112
682.46655 -496.08929 -10.222433 6.2600002
729.40698 -496.54294 -10.796455 14.85
730.40771 -496.03897 -11.321218 12.423732
731.00049 -495.88766 -10.516586 9.2765026
732.83203 -495.68686 -10.882105 6.0690031
734.24841 -495.849 -10.931208 15.886387
734.85895 -495.70682 -11.053645 17.555
736.74432 -496.02325 -11.292354 10.764657
738.10797 -496.4386 -11.118813 11.89566
738.5202 -496.39914 -11.076344 10.558565
742.12561 -495.64929 -10.277714 15.099988
743.05762 -495.74921 -10.536486 9.149786
744.34888 -495.76447 -10.263168 9.0199995
745.00775 -495.82608 -10.501621 8.580617
746.3808 -496.3371 -10.284685 6.9411922
747.34375 -496.70807 -10.430176 10.52
752.29053 -496.23071 -11.338752 8.0200005
752.3927 -496.21225 -11.295321 8.0214281
753.87653 -496.05457 -11.220839 8.5699997
759.84772 -496.03943 -11.118649 7.4387503
761.0072 -495.66183 -11.270676 7.6228046
761.96313 -496.31729 -10.755736 11.418399
762.58154 -495.98492 -10.50215 10.051381
809.17688 -496.02069 -10.720779 7.6199999
810.54333 -495.94684 -11.163437 6.7825003
811.67883 -496.11133 -11.012147 10.4875
812.97766 -495.82037 -11.007366 19.138462
814.49579 -495.98718 -10.449508 11.505839
815.37305 -496.50824 -10.498802 9.4041662
816.36542 -496.14432 -11.240784 10.723332
817.67224 -495.63605 -10.209951 11.862406
819.10815 -496.01489 -10.419706 11.864055
820.35406 -496.31757 -10.236518 9.8482189
821.63837 -495.99805 -10.776588 9.8430157
822.93201 -496.54666 -10.190187 10.17799
823.63055 -496.71359 -10.323442 17.010878
825.5105 -495.62201 -10.44294 13.278288
826.5163 -495.633 -11.267076 17.778196
828.40802 -495.96793 -10.340755 13.459252
829.75024 -496.28848 -10.838161 12.321201
830.96997 -496.40256 -10.972317 15.031677
832.27502 -496.75095 -10.888487 12.641068
833.49146 -496.66376 -11.099308 10.33307
834.73242 -496.71689 -11.212837 13.077741
834.98145 -496.76758 -11.378481 10.985624
837.27612 -496.78357 -11.237309 19.88765
852.03387 -496.57159 -11.427491 10.82
677.28638 -495.58249 -10.757261 7.8400002
677.73071 -495.57489 -10.480441 7.8400002
679.6842 -494.47992 -10.9088 6.8200002
680.79883 -494.7561 -10.801288 7.7249999
682.11169 -494.63959 -11.126887 7.5400004
727.7149 -494.55121 -10.257807 11.040937
728.49158 -494.62585 -10.506327 11.059063
729.87732 -494.56714 -10.492072 8.7241116
731.75562 -494.76321 -10.204638 12.731039
732.61505 -494.75754 -11.396774 10.714539
733.8493 -495.28537 -10.960654 10.945
735.37921 -495.40897 -10.351586 12.044815
736.72095 -495.57751 -10.893179 10.751192
737.86163 -494.80872 -11.368668 12.407257
738.70404 -495.2153 -11.340693 15.001723
740.07642 -494.36072 -11.408592 13.52582
740.97961 -494.45297 -11.312954 12.674328
742.26562 -495.12875 -10.212873 11.865703
743.93939 -495.1142 -10.222569 10.02
744.75928 -495.31238 -10.405021 6.0100002
751.60986 -494.48438 -11.359192 10.402528
753.1684 -495.09714 -11.102798 12.639999
753.98761 -495.13831 -11.315589 9.4410934
758.04987 -494.55746 -11.016292 7.0550003
760.53082 -495.05786 -11.375547 6.6453047
761.87891 -495.32733 -10.711396 14.978773
762.61682 -494.88632 -10.202143 17.64978
805.63794 -494.39755 -10.339658 10.675625
806.37488 -494.36588 -10.36499 11.141251
807.46783 -494.65292 -10.284298 10.00033
808.32104 -494.78436 -10.264462 10.431986
810.24084 -494.53479 -10.313652 16.60066
811.74939 -494.36224 -10.206401 10.924902
812.88977 -494.43677 -10.29517 10.826779
814.22925 -494.90143 -10.637237 12.208452
815.57318 -494.85168 -10.433451 10.329609
816.7384 -495.23077 -10.572969 13.470653
818.10541 -495.42285 -10.64701 15.839106
818.90698 -495.54254 -10.502173 13.220264
820.61975 -495.41058 -10.271738 9.3918972
821.54614 -495.17651 -10.298316 10.045762
823.02661 -494.59805 -10.792216 16.622473
824.28113 -495.04401 -10.654755 14.281476
825.53204 -495.19916 -10.438828 16.359127
826.72339 -495.07901 -10.990912 15.273193
827.80511 -495.3031 -10.937366 13.727169
829.36176 -495.43369 -11.2205 16.016039
830.32379 -495.30145 -10.962241 11.300314
832.03326 -494.80957 -10.385808 18.83
833.3927 -495.16339 -11.02916 13.581654
835.65167 -495.01837 -10.292048 10.867588
836.95081 -495.31009 -11.10296 19.559999
837.88031 -495.52676 -10.957344 12.975001
856.20471 -495.47131 -11.25139 9.2700005
857.0658 -495.50665 -11.245539 9.6999998
679.68347 -493.91046 -10.785952 5.8899999
680.51538 -493.70532 -10.59376 7.707222
682.06104 -494.08948 -10.750288 8.8396072
682.70496 -493.35046 -10.77636 7.2800002
718.13562 -493.12357 -10.728049 6.8299999
723.30786 -493.16333 -10.176138 9.3100004
725.29791 -493.23602 -10.254926 11.962195
726.5083 -493.8302 -10.345448 12.319751
727.51495 -493.41663 -10.722151 11.811962
729.12994 -493.72443 -10.374073 9.2244883
730.33704 -493.64642 -10.419847 12.880601
731.78125 -493.15994 -11.098956 11.14024
732.98096 -493.70868 -11.225233 13.431355
733.70508 -493.58887 -10.687381 10.641986
735.19385 -493.23486 -10.218281 10.738621
736.64447 -494.08182 -10.750126 9.9321222
737.18323 -494.09027 -11.197985 12.637295
739.05078 -493.93494 -11.14031 12.738875
740.76245 -493.15366 -10.650443 12.681275
741.16919 -493.48584 -10.278984 11.1553
742.91357 -493.41458 -10.722766 9.5639048
744.48224 -493.47842 -10.56336 11.154748
744.81982 -493.48413 -10.648527 13.006945
751.00696 -494.17645 -11.401845 9.5642567
751.47998 -493.92709 -11.00498 6.3614855
753.14697 -494.24841 -10.775255 9.9512501
803.01514 -493.17505 -10.332094 5.8711643
804.19574 -493.12488 -10.242282 5.202508
805.15936 -493.13464 -11.039934 13.507761
806.19678 -493.2684 -10.544541 11.94437
808.07965 -493.49109 -10.233338 9.8109617
809.32941 -493.6033 -10.304662 12.508044
810.49054 -493.93097 -10.288958 8.7421551
811.97614 -494.13541 -10.490776 11.141157
812.15125 -493.97095 -10.340295 9.6273355
814.08521 -493.52835 -10.510123 9.7350016
815.5918 -493.96823 -10.457344 10.28875
817.05566 -493.23981 -10.720711 11.780055
818.28796 -493.67245 -10.480305 12.254213
819.37946 -493.75015 -10.76944 14.641392
820.7251 -493.91449 -10.768642 10.355002
821.8833 -494.1188 -10.629382 11.504014
823.15302 -494.07803 -10.742952 15.30807
824.49933 -494.24045 -10.667237 14.020615
825.5838 -494.24469 -11.212699 10.413267
826.97253 -494.03906 -10.769171 10.064993
827.50482 -494.13705 -10.984585 9.9862442
829.12305 -494.33258 -10.825445 9.1700001
680.38733 -493.01379 -10.95594 5.4099998
681.86841 -492.09192 -10.646711 7.2010536
682.80554 -492.48383 -10.540668 5.7425003
717.39746 -492.52539 -11.014822 6.3800001
718.5921 -492.73456 -10.376957 6.8206248
723.89172 -492.53949 -10.295858 5.3900003
725.19934 -492.61044 -10.424969 7.0838842
726.44849 -491.91223 -10.497629 7.593998
727.91498 -491.93628 -10.90059 11.368
729.15472 -492.32675 -11.105172 9.7625446
730.3186 -492.61142 -10.26045 9.5506649
731.64172 -493.01639 -11.092306 10.30581
732.98755 -492.7218 -11.038815 11.590324
734.49023 -492.15338 -11.207272 10.976507
734.57458 -492.12915 -11.038229 10.886642
736.10486 -492.81232 -10.748343 14.12125
737.97058 -492.22577 -11.2583 12.976976
738.59949 -492.70618 -10.300282 9.129446
740.61334 -492.96222 -11.283323 12.472315
741.0744 -492.65967 -10.255119 12.478328
742.22443 -492.97531 -10.986456 6.9099998
779.51495 -492.20944 -11.285099 9.5499992
781.00299 -491.8645 -10.286848 12.05
789.09705 -492.23224 -10.899824 12.22
790.20825 -491.91339 -10.510473 10.191511
795.2666 -491.89099 -10.3129 11.14
796.26654 -492.41733 -11.181452 12.026448
797.12207 -492.40576 -11.161432 11.557188
802.84082 -492.88571 -10.879901 8.3299999
803.93158 -492.41324 -10.501073 8.8759708
805.54138 -492.19916 -11.221704 13.84275
805.87085 -492.22232 -11.082197 13.220866
808.04834 -492.00433 -11.305573 16.277771
808.49756 -491.8605 -10.736343 9.4684258
810.38727 -492.56747 -10.226315 14.447738
811.80194 -492.29019 -10.93091 14.485492
812.77209 -492.2207 -10.710895 16.208082
814.36768 -492.60437 -10.469347 15.7981
815.67767 -492.93942 -10.881348 15.299854
816.99408 -492.88043 -10.856257 12.609141
818.28882 -492.99515 -10.94543 11.309825
819.22247 -492.86368 -11.110716 14.794347
819.70972 -492.95895 -11.194801 14.857449
821.44672 -492.72363 -10.251896 10.395
822.67084 -492.40942 -10.515013 19.326279
823.96625 -492.64542 -10.329952 11.264042
825.32306 -492.08835 -11.274453 11.100257
827.00061 -492.95258 -10.973709 8.7350016
679.6709 -490.55804 -10.440007 8.1899996
680.96503 -490.87958 -10.501398 6.9475002
681.71143 -491.17334 -10.583848 6.7668333
682.62604 -491.47617 -10.776029 6.3133335
716.55396 -490.75372 -10.316561 8.6000004
717.68518 -490.97809 -10.536682 6.9499998
718.09082 -490.65436 -10.292999 7.1999998
720.34375 -490.9726 -10.287063 13.59
721.56079 -490.76117 -10.898851 10.259486
722.7179 -490.60974 -11.014557 7.8455172
723.93152 -491.36118 -10.223835 9.6745882
725.60083 -490.58215 -10.229103 16.506666
726.776 -491.01788 -10.470301 11.390831
726.94159 -491.06281 -10.353755 9.5982876
729.42499 -491.59097 -11.163147 11.280197
730.60138 -491.24283 -10.702924 10.203334
730.96387 -491.05014 -10.4748 10.053126
732.22339 -490.77301 -10.274513 13.84
734.42627 -491.13574 -11.149696 16.137777
734.79065 -491.20264 -11.312971 13.619251
737.04419 -491.60333 -10.351158 10.46
737.32251 -491.50818 -10.301085 10.460068
778.53711 -491.19574 -10.787232 7.4349999
779.59387 -490.83466 -11.065857 6.1113892
781.36987 -490.60043 -10.745853 11.974424
781.66779 -490.58578 -10.862508 6.6100001
785.33856 -490.56439 -10.195248 8.9200001
786.25836 -490.56238 -10.518785 15.013867
787.21942 -490.54471 -10.818133 11.913569
788.16821 -490.57684 -10.689873 9.5935364
790.33972 -490.66675 -11.191601 10.677532
793.87573 -490.53839 -11.334446 8.3999996
796.60138 -490.73764 -11.190232 8.3623724
796.93604 -490.85657 -11.363262 9.8363771
798.12964 -490.55899 -11.062233 9.3100004
801.77289 -491.03067 -10.269603 8.2200003
802.13257 -490.57776 -10.609425 8.2200003
804.21985 -490.58109 -10.999908 7.4623294
805.58197 -490.9501 -10.224504 6.3800287
806.4989 -491.74921 -10.657948 10.675116
808.20532 -491.76746 -11.03158 11.253832
808.97748 -491.46954 -11.171468 16.42568
810.04382 -491.49112 -10.916964 15.359039
811.51343 -491.66324 -10.996681 13.316765
812.6944 -491.7319 -10.978562 16.661678
813.75146 -491.7543 -10.873719 10.311227
814.69141 -491.27014 -10.872572 10.0225
816.0188 -491.21848 -10.944348 18.932222
818.10809 -490.98178 -10.603498 9.6241665
818.64502 -491.49597 -10.90065 6.8700552
822.56567 -491.38638 -10.2866 18.399952
679.70691 -490.48892 -11.166983 8.1899996
680.79053 -490.23318 -10.7624 6.0166664
717.95349 -489.81921 -10.725151 9.4752512
719.02759 -489.63312 -11.005066 7.8235712
719.52557 -489.55612 -10.729179 7.2308116
721.37109 -489.95898 -10.996141 12.218554
723.02576 -489.52405 -11.192789 10.309204
724.0918 -489.6604 -10.42819 11.305746
725.53467 -490.38199 -11.35227 8.0850983
725.8075 -490.45502 -10.413854 14.794882
727.23163 -489.64346 -11.366923 8.5702572
730.1864 -490.4946 -11.252972 9.4654198
731.86847 -490.19476 -10.934927 11.15801
732.11731 -490.30002 -11.158171 11.586798
778.91772 -489.79437 -11.245629 7.8949995
779.89587 -489.47968 -11.057327 11.304821
781.46838 -489.38467 -11.169912 12.796356
781.82306 -489.82138 -11.382645 9.3047915
784.06714 -489.26273 -11.144155 12.25
784.32239 -489.28915 -11.178837 11.244167
786.4281 -489.34167 -11.057172 10.088232
787.66016 -489.3396 -11.330294 14.635999
788.02618 -489.36777 -11.365346 14.955317
790.39606 -489.88766 -11.304611 9.1099434
790.96112 -489.57141 -11.323793 16.111687
792.37341 -489.27307 -11.26812 12.94
793.88513 -490.20728 -10.920712 10.62
794.40271 -489.34601 -10.33725 13.01368
795.78174 -489.28299 -10.508684 10.697979
797.59009 -489.54385 -11.13371 10.885715
799.11975 -489.26932 -10.412379 10.486005
799.4751 -489.31476 -10.939953 10.760082
801.22986 -489.62222 -10.859997 10.145
802.2218 -489.89056 -10.36755 7.8813286
804.39197 -489.48013 -10.83566 7.5883985
805.55585 -489.33649 -10.763691 13.98531
806.44135 -489.34052 -10.699949 16.847486
807.39349 -489.39789 -10.919877 18.383844
809.34015 -490.31363 -10.818535 14.162835
810.46704 -490.39941 -10.739598 11.4713
811.77521 -489.91245 -10.517903 13.125989
812.66589 -490.13556 -10.933382 14.977599
813.31836 -490.48798 -11.001372 12.919628
816.24268 -490.44537 -11.389995 10.050547
684.57092 -488.18549 -10.877514 9.027812
685.21729 -488.10184 -10.452618 7.1100001
716.242 -488.17133 -10.325331 9.1684723
716.93616 -488.49408 -10.273383 9.61833
719.14124 -488.18475 -10.549454 10.519096
719.93701 -488.06561 -10.982975 9.110815
720.69336 -488.18326 -11.042965 8.8221865
722.80774 -489.08118 -10.717138 12.919014
723.22998 -489.15442 -10.892709 9.611289
725.09851 -488.31586 -10.69813 6.9202509
726.12671 -488.69861 -11.076668 9.8430023
727.30048 -488.92654 -10.572569 12.455573
767.17682 -488.09729 -11.189142 13.89
768.23993 -488.30762 -10.319263 9.34478
768.96667 -488.17639 -10.49246 9.0595369
770.95673 -488.3981 -11.189269 18.246311
779.50793 -488.9292 -11.177734 6.7596488
781.47565 -488.62256 -10.855939 16.999998
781.74695 -488.60895 -10.764521 15.028514
783.93384 -489.1102 -11.151078 13.914444
784.42499 -489.21408 -11.274719 10.159524
786.52087 -489.07092 -11.206993 7.9710236
787.74945 -488.89365 -11.395007 11.819901
787.97302 -488.89709 -11.381808 11.953215
790.42395 -489.05389 -11.157334 10.996684
791.66199 -488.05267 -10.903954 14.034586
792.78992 -488.00232 -11.353019 9.6349449
793.55444 -489.00421 -11.048549 11.033125
795.4812 -488.37985 -11.022055 10.962564
795.65875 -488.34836 -10.967651 13.506338
797.23743 -489.00031 -11.275045 9.06285
799.26508 -489.18524 -10.761374 11.428483
799.39478 -489.11707 -10.651788 14.848768
801.59296 -488.14682 -10.744876 11.399967
