# .PCD v0.7 - Point Cloud Data file format
VERSION 0.7
FIELDS x y z intensity
SIZE 4 4 4 4
TYPE F F F F
COUNT 1 1 1 1
WIDTH 1210
HEIGHT 1
VIEWPOINT 0 0 0 1 0 0 0
POINTS 1210
DATA ascii
-9.1839714 -3.3507767 0.34580278 10.200001
-8.9811878 -3.3714809 0.34054482 6.8000002
-8.5231838 -3.371027 0.37214687 7.1999998
-8.4188538 -3.3769982 0.39324623 8.3999996
-2.6896353 -3.3610871 0.31150484 10.7
-9.3316488 -3.20889 0.36667708 11
-9.1935921 -3.2855957 0.35781768 7
-8.7192392 -3.2017007 0.39589748 9.3000002
-8.059289 -3.2443683 0.35189778 19.799999
4.0174451 -3.2689404 0.33854672 10.2
9.5173235 -3.2542298 0.35351339 9.1000004
-15.243473 -3.1262453 0.38947099 21.700001
-15.196302 -3.1465416 0.35050708 10.6
-9.4172096 -3.1536527 0.3907792 7.9000001
-8.4419556 -3.1882303 0.38825879 8.6999998
5.4523935 -3.117487 0.30024472 27.5
-8.8276997 -3.073765 0.35537344 7.1999998
-8.4264698 -3.0115793 0.32387438 11.9
-5.5127721 -3.034265 0.38358203 8
-2.0834343 -3.0317564 0.35023913 11.7
-1.6103917 -2.9233785 0.33527344 9
-1.3225734 -2.9943643 0.38567692 24.9
-1.2013555 -2.9551728 0.39831606 25.5
-1.0629005 -2.9873528 0.36009604 13.6
-0.86875165 -2.9531977 0.33529466 20.700001
-0.6917572 -2.9041042 0.32517111 19.299999
8.8452091 -2.9554541 0.38115209 6.6999998
9.4951696 -2.9066048 0.33904845 7.8999996
-10.131563 -2.8564601 0.32571954 8.6999998
-9.8126469 -2.8377519 0.30770385 15.7
-9.6564436 -2.8456764 0.39503962 6.5
-9.5295105 -2.8827233 0.30637693 7.0999999
-9.4311895 -2.8810678 0.39761099 13.4
-9.0865784 -2.896312 0.39119437 6.8000002
-8.8787603 -2.8516946 0.38521755 21.299999
-8.569169 -2.8726759 0.36946368 8.3999996
-8.4886541 -2.8017271 0.35614735 28.5
-8.0812187 -2.8089883 0.33919668 11.1
-5.1059141 -2.8939755 0.36186534 12.7
-5.0782108 -2.8024056 0.34845868 18.299999
-4.7755966 -2.8251772 0.30814216 7.9000001
-0.3957049 -2.803762 0.3362329 23.799999
-9.6547604 -2.7572885 0.31570593 6
-4.7301035 -2.7357018 0.3293272 10.5
-0.14392561 -2.7063613 0.36712116 19.299999
9.1611662 -2.7678916 0.37130982 9.8999996
-9.1814461 -2.6857696 0.3884438 18.6
-8.6547985 -2.6571777 0.30211264 10.8
0.29416987 -2.6078696 0.3764995 19.4
0.1744568 -2.5186737 0.31952894 25.1
0.4824478 -2.5250294 0.34167182 24.799999
0.7477622 -2.5063663 0.35831112 19.799999
0.88344169 -2.5494382 0.36729234 12.7
7.6231203 -2.5101116 0.35062978 24
9.5798073 -2.5978975 0.37047416 10.5
-10.063115 -2.4912701 0.31547707 9.3000002
-8.8521957 -2.4176807 0.35847944 7.5999999
7.5980291 -2.4592557 0.34964043 6.8000002
-9.4767303 -2.3304684 0.33285278 6.1999998
-8.6884451 -2.39324 0.33341348 13.6
-5.2685966 -2.3973165 0.33625799 11.2
0.93074942 -2.334343 0.35332024 22.049999
1.1582245 -2.3230996 0.36051452 19.6
1.3401818 -2.3567095 0.37878549 13.8
7.4512229 -2.3127353 0.39268565 13.9
-8.8111305 -2.2843416 0.39843303 12.7
-7.8176584 -2.2998266 0.34888607 12.4
9.532136 -2.2617896 0.38522476 9.5
1.3201689 -2.1397812 0.39035523 19.299999
1.4238394 -1.9545403 0.31550559 24.9
2.4808791 -1.9140418 0.35858998 9.3999996
9.4480467 -1.7238511 0.38228643 8.6000004
3.1602335 -1.6175156 0.37765297 11.9
2.3922238 -1.5531405 0.3155126 10.2
2.0413098 -1.4134159 0.30266041 13.1
7.6809416 -1.4385473 0.3488135 11.2
-15.323814 -1.2924666 0.32109928 12.1
2.4953613 -1.2837263 0.38066602 8.3999996
7.3273892 -1.1885805 0.32473052 17.9
-8.1818237 -1.0550642 0.39860851 17.9
-0.47249436 -1.0885952 0.34882289 6.9000001
2.6760466 -1.0970998 0.35529906 8
2.7688766 -0.98467249 0.38496059 26.200001
-14.249078 -0.83842397 0.34311876 15.9
7.1639218 -0.81614929 0.39809641 13.9
3.342875 -0.61761767 0.30308726 6.4000001
5.4943495 -0.64004201 0.33974484 6.4000001
-2.7208419 -0.54999781 0.35384369 14.2
4.3022318 -0.52244294 0.33748394 8.5
3.1728148 -0.3848581 0.37788868 6.1999998
3.2443447 -0.34010923 0.34189415 11.1
4.0898294 -0.21480803 0.33418581 9.1999998
5.3884315 -0.29191697 0.39308774 8.8999996
1.2365439 -0.048371762 0.31630924 19.700001
2.1207623 -0.087798238 0.35284686 9.3000002
2.9638927 -0.0013319999 0.3235895 6.1999998
4.0172706 -0.034476459 0.34876809 10.6
4.1703095 -0.059664324 0.3019737 9.5
0.49065813 0.021002993 0.36933801 11
1.0844741 0.055195987 0.30391344 16.799999
1.1689358 0.016588002 0.30329925 19.1
1.2678678 0.092618734 0.31607699 12.8
1.337023 0.025631547 0.33034575 13.2
3.0347717 0.040094938 0.33106226 8.8999996
3.1352153 0.093188241 0.35185042 11.1
3.21264 0.034680858 0.37141851 11
4.1160636 0.0062440187 0.35675085 31.4
4.2405348 0.012579903 0.36680079 30.1
0.98913604 0.13179043 0.3235102 17.700001
1.1580285 0.15867913 0.34704882 10.5
1.6593158 0.12292138 0.301806 8.8999996
2.7458827 0.13697474 0.39329383 20.200003
3.0808697 0.11913605 0.35743663 15.6
3.2410207 0.16182743 0.3034198 12.5
4.1398878 0.1192788 0.35327145 6.5999999
0.18682362 0.24840911 0.30422848 24.299999
0.94817853 0.26954606 0.34764367 8.8999996
1.0812929 0.21569496 0.33550119 11.4
1.3747469 0.29272753 0.30185777 6.1999998
1.4245393 0.22637391 0.30475286 6.4000001
1.592975 0.28394887 0.30438313 9.1000004
2.6111069 0.2074731 0.39720994 16
3.0740671 0.20467256 0.36318552 12.7
4.2529168 0.24933301 0.3696928 20.700001
0.27437827 0.33329999 0.3258698 18.5
0.48515907 0.38639623 0.34030792 20
1.5008014 0.33439398 0.30742946 6.4000001
1.825738 0.31000903 0.38036025 8.8000002
2.2311502 0.3178165 0.36208788 17.799999
2.8335719 0.39021537 0.33703381 10
3.0963142 0.34139904 0.33859712 21.4
3.1831977 0.32320178 0.36464337 6.6999998
3.4905283 0.31531909 0.31059837 7.9000001
0.5752573 0.45595178 0.30729857 10.6
1.3887873 0.43159944 0.36917937 8.3000002
3.1501307 0.43342161 0.33611137 29.799999
3.3463225 0.40572482 0.37567204 8
1.1620555 0.54863703 0.30666262 7.4000001
2.8732457 0.52985883 0.35854056 9.5
3.3030407 0.59036398 0.34070843 20.799999
-8.2531967 0.67415571 0.3022711 10.2
-0.15333189 0.62107527 0.36101747 6.0999999
0.26946399 0.62268746 0.33092904 6.6999998
3.07236 0.70095992 0.30859569 8.1999998
2.4774938 0.87059826 0.32809675 11.8
5.0931935 0.98130709 0.39866459 10.7
7.0574136 0.98740989 0.37852421 18.799999
-10.979525 1.3439312 0.3170681 7.5
6.8691936 1.3811833 0.37479395 20.799999
-8.5284595 1.7237806 0.37087315 20.1
-5.0273876 2.7004211 0.30830497 12.2
-5.1754794 2.8230901 0.36959547 12.2
-5.0510015 2.9971464 0.38482764 24.1
6.6753583 3.0613365 0.37613279 24.1
-7.631144 3.2178574 0.32114816 9.6000004
6.7730064 3.2694342 0.36891019 10
6.6748676 3.3381052 0.3691681 8.6999998
6.7330899 3.7498198 0.39321482 6.0999999
-8.0861683 3.9219849 0.39078069 11
6.0214872 5.0079451 0.3214128 9.6000004
-7.7846928 5.2327118 0.38263953 9.6999998
3.3241069 6.1253614 0.32862419 10.6
-5.7005739 6.3022337 0.34481668 9
-7.4662766 6.6528783 0.30997998 9.8000002
-4.4292302 6.897409 0.32672602 13.4
-8.2404099 7.594142 0.36869535 9.3000002
-10.538061 -23.478149 0.40716255 20.200001
-11.147999 -21.105057 0.40712434 6
-11.380637 -20.338957 0.44739139 10.8
-8.3297749 -20.062397 0.48389119 7.1999998
-12.701048 -18.857136 0.49803114 6.1999998
-12.116072 -18.871147 0.40691382 19.5
-12.701273 -18.737213 0.45213825 7.9000001
-13.46402 -18.589342 0.47217238 11.3
-12.252298 -18.582954 0.42963719 11.2
-14.780054 -18.441734 0.47156942 11.7
-14.462607 -18.445528 0.43403751 15
-12.816314 -18.425777 0.46433926 9.3999996
-13.491432 -18.326138 0.48821217 8.1999998
-14.029122 -17.711918 0.49091291 10.6
-13.073796 -17.081535 0.441998 7.5
-15.013912 -16.933294 0.41879475 12
-14.389042 -16.301476 0.49070382 8.6000004
-10.498403 -16.229319 0.42874086 15.2
-14.539114 -16.061626 0.42352647 10.9
-14.473634 -15.955709 0.43482584 12.5
-15.139769 -15.851629 0.47267491 14.8
-10.164637 -15.892439 0.45538667 12.2
-9.2298098 -15.864435 0.40420318 14.2
-7.2866001 -15.87006 0.45189619 12.3
-9.0716772 -15.638804 0.42390323 8.5
-9.2492771 -15.393709 0.40746599 6.5999999
-8.7577496 -15.351466 0.40024066 18
-8.6467266 -15.323505 0.46185213 13.7
-9.6680746 -15.176618 0.44710094 10.1
-14.658976 -15.029619 0.40771914 11.9
-10.568237 -15.033488 0.43123144 7.9000001
-9.3778639 -15.016166 0.44743353 8.6000004
-8.2581215 -14.908721 0.446931 10
-12.364415 -14.871525 0.43159205 29.200001
-9.7560835 -14.677736 0.46151662 11.825001
-10.677796 -14.464531 0.40700012 20.4
-10.529525 -14.482818 0.44041401 7.1999998
-19.572044 -14.33952 0.46820408 11.2
-14.796478 -14.31271 0.42833364 7.1999998
-19.024118 -14.102942 0.47877592 7.9000001
-11.631703 -14.183449 0.48216838 8.5
-19.278864 -14.004763 0.40685928 16.1
-12.049895 -14.029041 0.40397835 13.6
-11.022775 -14.027852 0.4613418 7.9000001
-10.938756 -13.905833 0.45465231 12
-10.588802 -13.970705 0.42990518 16.5
-11.391839 -13.858749 0.41095549 9.5
-10.503889 -13.784719 0.47006932 9.8999996
-11.369431 -13.639862 0.49514925 23.5
-11.20241 -13.695992 0.48965213 11.3
-20.020906 -13.436951 0.43864822 10.8
-12.094591 -13.40682 0.43376029 13.4
-11.637123 -13.438471 0.4768149 16
-12.000906 -13.398909 0.45328343 10
-11.875641 -13.395887 0.44482154 9.8000002
-12.297849 -13.265219 0.49248844 17.799999
-12.445946 -13.152308 0.40122709 7.6999998
-12.132501 -13.177124 0.48669749 12.8
-12.635242 -13.006037 0.4480972 29.200001
-12.347105 -13.008257 0.42301589 12.8
-12.405527 -12.902473 0.41870528 14.3
-12.238117 -12.990521 0.49677712 11.8
-12.051696 -12.924399 0.48575014 8
-11.962914 -12.995962 0.44562 15.7
-11.486158 -12.963374 0.41115403 10
-12.205889 -12.864393 0.41080111 12.2
-12.750581 -12.793602 0.41823941 33
-12.380068 -12.694354 0.49172711 10.7
-12.262895 -12.697432 0.43157649 10
-13.354961 -12.565118 0.40649045 7.4000001
-11.200836 -12.584734 0.48896623 17.799999
-12.124489 -12.440208 0.48782343 8.6999998
-12.804599 -12.306105 0.44887203 17.9
-11.937432 -12.392368 0.41598666 8
-10.864226 -12.324406 0.40235639 11.8
-10.612906 -12.378872 0.40980709 22.200001
-10.573236 -12.374117 0.45003915 12.3
-11.182383 -12.255467 0.46957541 8.6999998
-10.737978 -12.236355 0.40860534 24.9
-11.01463 -12.13904 0.4832077 17.1
-13.622194 -11.978806 0.44366074 12.1
-11.415166 -11.995811 0.42352664 12.8
-11.725643 -11.844065 0.45396954 28.9
-11.658561 -11.715098 0.40771788 31.299999
-11.038587 -11.703419 0.43740946 26.4
-10.591281 -11.719591 0.4465878 12.5
-10.476412 -11.793558 0.43540001 26.9
-11.322281 -11.677631 0.4875524 14
-10.044508 -11.426224 0.47702318 20.5
-11.810445 -11.056299 0.44534707 9.3999996
-17.547058 -10.934679 0.4900552 12
-12.149708 -10.951348 0.49506783 20.799999
-10.5762 -10.953809 0.42227703 6.3000002
-10.496092 -10.932077 0.42679095 9
-17.66399 -10.884458 0.47304922 8.6999998
-17.329018 -10.811263 0.43939167 19.9
-11.372202 -10.864602 0.44500154 16.200001
-10.555964 -10.834604 0.45402175 7.4000001
-10.950204 -10.465524 0.42711896 9.3999996
-10.833075 -10.435408 0.47520781 6.5
-11.690639 -10.350399 0.4485867 7.3000002
-11.425287 -10.348098 0.41304439 19.9
-11.168164 -10.392349 0.46655643 7.8000002
-10.675338 -10.33065 0.41528893 10.7
-18.570221 -10.257273 0.41451669 12.2
-10.751951 -10.274911 0.46424079 11.9
-11.463447 -10.179482 0.40810049 25.5
-11.460845 -10.087733 0.49523002 7.0999999
-10.909294 -10.0921 0.41953564 16.5
-10.585002 -10.031434 0.40055794 11.2
-11.530853 -9.9351864 0.41500342 15.8
-11.135949 -9.9359493 0.43153286 16
-10.929214 -9.9452515 0.48217407 7.9000001
-10.89166 -9.9616137 0.45641559 17.799999
-10.771473 -9.9567118 0.44646204 20
-10.982493 -9.8699789 0.4402582 11.4
-10.473763 -9.8436012 0.40753448 10.2
-10.62441 -9.7317362 0.48739046 9.3000002
-16.567793 -9.6604166 0.42975411 7.6999998
-11.459622 -9.6253977 0.44907838 16.9
-10.666646 -9.6051483 0.42604482 11.7
-16.945465 -9.4818716 0.43116733 11.9
-11.398636 -9.4500294 0.45426458 9
-10.548006 -9.2482939 0.41741371 15.8
-10.634743 -9.1433544 0.42480367 16.200001
-10.452183 -9.0779161 0.48771441 15.2
-16.805981 -8.9652729 0.46242374 11.1
-10.539639 -8.8188047 0.40322882 9.6000004
-10.225801 -8.8915958 0.43789417 8.5
-16.945208 -8.7297039 0.44331658 13.4
-10.83735 -8.7650166 0.43108261 8.1000004
-10.36737 -8.7412815 0.43872878 10.6
-17.095173 -8.6515865 0.43211347 8.1999998
-17.238611 -8.4535275 0.43861526 10
-10.199232 -8.4511786 0.47059619 9.1999998
-10.328667 -8.2144117 0.40789056 10.1
-9.8174334 -8.2232361 0.47193623 7.5999999
-9.8462467 -8.1257353 0.49592358 11.4
-9.7763166 -8.1001453 0.42379388 9.8000002
-17.325451 -8.0393572 0.4527272 8.5
-9.8403711 -8.0857286 0.43897334 7.8000002
-17.413914 -7.9591327 0.45466989 10.8
-17.335703 -7.9654045 0.4543348 12.2
-9.7482681 -7.9718943 0.41458148 8.1499996
-9.5011902 -7.9128695 0.47203484 6.3000002
-9.7240858 -7.8683338 0.41895437 8.6999998
-9.6402159 -7.889442 0.43942845 9.1000004
-16.580439 -7.797946 0.4446665 10.5
-9.5443678 -7.7151995 0.40786096 8.8999996
-9.6440058 -7.6328487 0.49976987 12.9
-9.4957838 -7.673347 0.47123796 6.5
-9.6155453 -7.5329676 0.4531545 16.299999
-9.5579357 -7.5320292 0.4740026 10.6
-9.5596533 -7.4389811 0.4330765 17.6875
-9.6073513 -7.3808007 0.45038688 24.9
-9.5362492 -7.3313212 0.42193463 16.5
-9.4638195 -7.3512774 0.46471792 20
-9.5076141 -7.2810874 0.44423959 25.9
-9.4460888 -7.2545609 0.43434221 17.225
-11.324711 -7.1419983 0.45273992 16.6
-9.4385462 -7.13764 0.44802064 10.25
-9.356883 -7.154808 0.486103 14.525
-10.657571 -7.0826693 0.47489855 14.8
-9.35151 -7.0517721 0.48184401 22.049999
-16.651402 -6.9112825 0.4911713 12.4
-9.4310322 -6.9115839 0.49907735 8.8999996
-9.3173733 -6.9497337 0.47749686 22.049999
-9.3182096 -6.8885741 0.4450421 8.1999998
-9.2323399 -6.8565159 0.46004868 19.224998
-9.1624479 -6.8180571 0.40686709 8.1000004
-16.548439 -6.7656703 0.42913926 7.5999999
-16.425034 -6.7535963 0.49024439 12
-9.2869892 -6.7507906 0.40470001 9.1000004
-9.1766758 -6.7517309 0.47425091 24.15
-8.9063931 -6.7491016 0.46388859 7
-16.616091 -6.6979785 0.44576436 14.4
-16.430981 -6.6760569 0.46557015 22.5
-16.306534 -6.6585584 0.44253224 6.1999998
-10.411953 -6.648767 0.47144324 14.3
-9.2334061 -6.6582222 0.43481863 8.5500002
-8.9692688 -6.6429963 0.49144617 9.3000002
-16.589418 -6.5868082 0.4371351 8.6000004
-8.9226198 -6.5151896 0.46697623 9
-10.599663 -6.4884424 0.41690397 11
-8.8648758 -6.4595137 0.47732848 12.9
-8.7743702 -6.4615755 0.41759044 9
-3.7473383 -6.4450579 0.41190943 22.5
-10.659703 -6.3006639 0.43960232 11
-8.8293333 -6.329411 0.46165654 19.35
-8.6225853 -6.364295 0.49120614 11.425
-8.9031248 -6.26512 0.49676502 25.299999
-8.7449741 -6.2352257 0.45562762 25.099998
-8.5305748 -6.2927632 0.44635189 9
-8.4807119 -6.2839699 0.46014857 9.8000002
-8.3644304 -6.2157836 0.45574239 9
-16.261139 -6.1497927 0.4254269 21
-9.0970898 -6.1777081 0.44032246 12
-8.4148817 -6.1624832 0.42840031 9
-8.2960835 -6.1503611 0.47269368 7.8000002
-10.919909 -6.0381365 0.40131304 11.9
-7.8098488 -6.0628891 0.48777324 8.1999998
-10.870133 -5.9990363 0.46553352 9.1000004
-8.2761803 -5.9900594 0.49649376 12.1
-7.9239244 -5.8930836 0.48704371 12.8
-9.0172653 -5.7655311 0.46378088 9
-7.8582592 -5.7659092 0.4966765 12.4
-7.3479862 -5.7800255 0.48669538 9.6499996
-7.2649117 -5.6938 0.47186297 9.6000004
-7.1531925 -5.6010885 0.46096921 8.8999996
-6.7519794 -5.632803 0.43299508 9.5
-7.2539682 -5.5745001 0.49588525 8
-7.0783663 -5.5785971 0.46253335 9.3000002
-6.704669 -5.5677943 0.4947142 8.5
-11.0907 -5.4823532 0.40993395 10.1
-9.9532394 -5.4621315 0.41550314 14.8
-7.104147 -5.4979644 0.48549604 8.6999998
-7.0238228 -5.4503517 0.4570564 9.2999992
-6.8374667 -5.4647875 0.4388476 9.1999998
-6.7489643 -5.4748836 0.44715458 9.5
-11.501489 -5.3535113 0.4607794 15.5
-6.7727675 -5.3465819 0.4289192 9.3000002
-6.6704969 -5.3489466 0.41485763 8.6999998
-9.8132057 -5.2599473 0.49423513 11.4
-8.1973896 -5.2311292 0.43739334 7.0999999
-6.5749331 -5.2705841 0.43366688 8.6999998
-6.4613047 -5.2219372 0.49976385 13.5
-6.2731333 -5.243629 0.43599316 7.8000002
-13.554607 -5.1050153 0.42404914 12.7
-7.2026587 -5.1793747 0.48312691 21.200001
-6.3845296 -5.155509 0.47365832 13.4
-6.2468777 -5.1426511 0.47044423 13.2
-6.1975813 -5.1099477 0.43210718 8.8999996
-15.430923 -5.0111632 0.42688209 14.6
-9.8811665 -5.0303483 0.42163318 13.8
-6.282321 -5.0626793 0.48359838 22.450001
-6.1410284 -5.0448928 0.45672667 16.35
8.9383383 -5.0147758 0.40927282 14.7
-15.739239 -4.9437127 0.48785585 6.6999998
-13.34702 -4.900393 0.47642004 8.1999998
-6.1944265 -4.990232 0.46081856 25.200001
-6.0442591 -4.9640384 0.44336301 22.25
-5.9850655 -4.9430509 0.45717758 7.8000002
-5.7700024 -4.9426942 0.4085547 7.9000001
-5.6450853 -4.9143333 0.494809 6.9000001
4.6688671 -4.9752049 0.49229822 11.4
-15.799078 -4.8061342 0.49108106 7.0999999
-5.913157 -4.8958669 0.46256813 25.4
8.8512211 -4.8150315 0.45195562 7.0999999
-10.357343 -4.7110677 0.43662673 9.1000004
-5.7417011 -4.7895679 0.4760392 7.5999999
-4.9446249 -4.7275486 0.41607091 8.6000004
-9.9111948 -4.6450877 0.42558819 9.1000004
-9.5655346 -4.694169 0.41116822 8.3000002
-6.5965552 -4.6382594 0.47633588 8.8000002
-5.2684879 -4.6617608 0.48073298 6.8000002
-4.4157114 -4.6038189 0.42337519 6
3.6940901 -4.690258 0.42909729 12.8
-4.7714624 -4.5444698 0.46350342 8.3999996
-4.6707735 -4.5128908 0.46129239 8.1499996
-4.2842288 -4.5737896 0.47774091 8.6000004
3.0162315 -4.5337095 0.44038782 14.2
9.0915051 -4.5011163 0.4844524 14.3
-11.822245 -4.4196711 0.45493162 19.6
-8.1601906 -4.4392304 0.49590975 8.8999996
-4.7718201 -4.4899135 0.47373062 10.1
-4.6379118 -4.4566364 0.44082171 10
-4.1870341 -4.4899659 0.44020665 9.6999998
-15.446438 -4.3980861 0.41400439 19.799999
-12.300092 -4.3133721 0.40628195 8.5
-4.3772745 -4.3783741 0.48307663 8.1999998
-4.131856 -4.3454814 0.46100485 9.1000004
-3.9902592 -4.3259368 0.40897316 9.1000004
3.97153 -4.3890533 0.47540367 9
8.3193407 -4.3385305 0.45632535 13.9
-16.12521 -4.2284689 0.4810369 10.5
-9.6781464 -4.2641435 0.48560959 11.6
-8.5716391 -4.2543793 0.41147178 8.1999998
-7.2330656 -4.2828517 0.43672734 11.2
-3.8184977 -4.2377768 0.47534451 13.1
-3.7304244 -4.2637205 0.41038051 11.65
-11.745214 -4.1928453 0.41158074 9.1999998
-8.43186 -4.183279 0.4305436 9.5
-3.7188754 -4.161077 0.46859118 19.4
5.4832745 -4.1426673 0.44839928 9.8000002
-12.290459 -4.0740433 0.49414968 7.1999998
-9.3870335 -4.0383935 0.47344688 9.1000004
-9.009285 -4.0358496 0.47933862 12.4
-8.9600544 -4.01894 0.41094443 28.799999
-8.8953791 -4.0180435 0.48943102 26
-8.4887543 -4.0152531 0.48448056 7.1999998
-8.3321905 -4.0704403 0.46565998 13.7
-8.2482061 -4.0612535 0.40328768 20.5
-3.6180999 -4.0838895 0.45535576 24.9
0.35434651 -4.0547647 0.40880269 8.5
5.69491 -4.0714512 0.41537246 9.3000002
-8.6094093 -3.9188008 0.47874838 9.6000004
-3.8789229 -3.931457 0.44420165 12.7
-3.1697593 -3.9877758 0.40975237 13.3
-0.40877265 -3.91641 0.47392052 7.4000001
-16.445206 -3.8987043 0.47587216 7.5999999
-9.1550684 -3.8193896 0.40923551 11.1
-8.7204208 -3.8533678 0.40137458 7.1999998
3.3931837 -3.8442171 0.48386523 7.4000001
-9.0707932 -3.7714221 0.4729301 8.8000002
-7.2355123 -3.7661304 0.43705121 6.6999998
-6.2144032 -3.7997394 0.41464147 31.9
7.2645369 -3.7451317 0.46242589 20.799999
-9.0733652 -3.6975327 0.49908808 9.1999998
-8.8864479 -3.645545 0.46293795 15.5
-8.6245432 -3.6137271 0.43455604 19.4
-8.5611925 -3.6355786 0.41326135 23.1
-8.1332693 -3.6542423 0.44045281 17.700001
-1.9977901 -3.622973 0.4285222 9.1000004
-16.066723 -3.5656869 0.45412868 10.9
-8.9492321 -3.55917 0.49778968 11.7
-8.812973 -3.5672493 0.48275822 14.8
-8.5562925 -3.5528164 0.48338223 7
9.4062004 -3.5661843 0.42778814 10.4
-12.717207 -3.4765491 0.4924916 12.2
-9.004755 -3.4625111 0.41946805 13.4
-8.4941225 -3.4758034 0.44247925 11.6
-8.1854115 -3.4417188 0.46239358 12.2
-2.3017864 -3.4616408 0.48633546 25.200001
-10.826563 -3.3449101 0.41334587 8.6000004
-9.4406796 -3.3473389 0.43926936 29.799999
-9.313179 -3.3238897 0.46139154 10.8
-9.131587 -3.3228884 0.46328795 11.1
-7.9402843 -3.3841953 0.44738442 17.65
-3.6424701 -3.3792055 0.46502662 10.2
-9.4540262 -3.2671206 0.4134503 8.1999998
-8.8880644 -3.2785914 0.49451041 9.3000002
-1.7667509 -3.2895217 0.47134316 24.799999
-1.6384604 -3.256382 0.43877956 25.4
9.5142269 -3.253643 0.45156664 9.5499992
-9.3535614 -3.1086512 0.40307921 15.4
-9.0420437 -3.1799624 0.43642256 16.799999
-8.7585421 -3.155611 0.45718393 23.1
-8.6153278 -3.1056023 0.41655865 18
-8.1907291 -3.1890507 0.45853293 27.200001
-8.0517111 -3.1893461 0.45989603 18.950001
-1.5378996 -3.1597121 0.40347195 25.6
-9.7700958 -3.0851941 0.44263947 14.4
-9.4509993 -3.0157118 0.49986804 20.4
-8.9546261 -3.075073 0.46302822 9.3999996
-8.4365711 -3.0846996 0.44138664 15.95
-8.3042812 -3.0394864 0.45379761 15.4
-7.9319077 -3.0855789 0.46866119 29.200001
-1.4624978 -3.0927944 0.4536835 25
-1.3833717 -3.006222 0.49581742 19.5
-1.1541562 -3.0358081 0.43962049 11.9
5.7784452 -3.0884757 0.46866584 13.1
-8.5883198 -2.9684062 0.44820181 8.6999998
-4.7222137 -2.9602418 0.42877385 20.299999
-1.1369591 -2.9197664 0.42536014 24.9
-0.92793095 -2.9732478 0.4422887 14.6
9.6121302 -2.9412794 0.44349137 6.3000002
-9.0247307 -2.8689806 0.47945803 8.6999998
-5.3918724 -2.8089266 0.46175671 17.5
-5.1192179 -2.8597674 0.43036029 7.9000001
-5.0172701 -2.8550479 0.40799516 11.3
-4.8620815 -2.8761923 0.42445108 9.1000004
-0.72712409 -2.8799081 0.41773465 8.6000004
-0.5453707 -2.8235106 0.40594468 19.4
-0.45757291 -2.8263202 0.44405368 17.700001
-5.2951326 -2.7530689 0.43704623 15.6
-4.9662914 -2.734313 0.44934133 11.7
-4.8304324 -2.7555513 0.40813354 12.299999
-0.25048572 -2.7331824 0.4520098 11.05
0.097772747 -2.7657607 0.49681947 8.6999998
0.2515099 -2.7135212 0.42346615 8.8999996
9.0374393 -2.7408481 0.45652995 6.4000001
9.3108349 -2.7579138 0.41258746 12.1
-11.331591 -2.6702271 0.43200135 20.799999
-5.1808043 -2.6585035 0.45175791 12.9
-5.0909081 -2.6637778 0.46532893 17.799999
-4.9650784 -2.6810546 0.47557333 29.799999
-4.7556524 -2.6638138 0.48269269 9.6000004
-0.044095084 -2.6691694 0.45245093 16.35
0.048922949 -2.6203272 0.44003737 22.400002
0.1567004 -2.67068 0.42867425 12.6
-14.618038 -2.506603 0.49986362 7.8000002
-9.1020527 -2.5382237 0.4534243 17.5
-8.6354332 -2.595547 0.43132025 15.2
-5.0231934 -2.5106232 0.48323482 11.3
-4.7747145 -2.5331681 0.46302697 8
0.13227499 -2.5578585 0.41202635 22.299999
0.43302703 -2.5987334 0.43288583 19.299999
7.1213293 -2.50755 0.42181635 20.6
-8.7374992 -2.4599867 0.4543269 15.1
-8.6186867 -2.497077 0.48237434 16.6
-5.3686657 -2.4448524 0.44136924 6.8000002
-5.1469736 -2.4993944 0.49683845 8.6999998
-5.057622 -2.4594364 0.43549168 14.8
-4.928494 -2.4647827 0.46468383 12.75
-4.8238912 -2.4961157 0.46125141 8.6999998
-4.7793393 -2.4464128 0.48656079 30.1
0.89187777 -2.4155896 0.40900719 19.299999
1.1846831 -2.4376175 0.43148929 13
7.4710903 -2.4346883 0.44189304 6.8000002
-12.906042 -2.3759818 0.48402897 10.4
-5.0067363 -2.3454349 0.4675222 14.8
-9.9128246 -2.2828009 0.42311096 20.700001
-9.3671436 -2.2495413 0.47510707 17.700001
-9.2592258 -2.2301152 0.47541308 16
-7.8681517 -2.2432051 0.42339465 9.8999996
2.410862 -2.2055573 0.41897863 9.5
9.5294666 -2.2613158 0.46439105 9.7749996
-9.1819172 -2.1645129 0.42546165 7.6999998
1.4348922 -2.1764464 0.46931398 12.7
7.5191588 -2.1379333 0.41398644 7.9000001
7.6341605 -2.1804061 0.48214799 9.1000004
-5.706048 -2.0386829 0.46484578 8.8000002
-4.8848248 -2.051867 0.44652516 21.4
1.4266753 -2.0107799 0.42878938 19.4
1.4319053 -1.9388764 0.40387464 25
9.3482351 -1.9096715 0.43778849 9.9499998
9.4709425 -1.9332205 0.44337857 10.366667
-11.052782 -1.8524886 0.40041333 13.8
-0.93242347 -1.7081351 0.47744733 16.4
-2.264719 -1.6162026 0.49798194 14.1
9.1082458 -1.6052297 0.47888127 14.3
9.3986616 -1.6125579 0.4836942 9.6999998
-8.4077559 -1.5728518 0.49589267 12.6
-8.9066257 -1.4935988 0.42071104 7.5999999
2.5257719 -1.4790087 0.42803979 9.3999996
9.8268061 -1.4458178 0.413477 18.200001
-8.8497887 -1.3668332 0.45321399 8.8999996
-8.5601635 -1.377413 0.4545984 7.0999999
2.1607802 -1.3873584 0.43434757 8.8999996
2.8333743 -1.3767104 0.46122107 23
3.5252838 -1.282392 0.420286 20.9
7.962791 -1.2501447 0.43683261 10
3.3731251 -1.1629794 0.46705598 14.9
2.7161908 -0.91659814 0.46571535 11.6
1.5613667 -0.78561747 0.47739375 6.5
5.4912148 -0.63966829 0.40199229 9.5
7.036572 -0.60900307 0.46372274 18.4
10.523273 -0.5023095 0.48223442 19.6
4.0335026 -0.41353351 0.47728568 13
5.3770075 -0.45956329 0.44741416 9.6687498
-1.8288789 -0.26409888 0.42426187 9.3000002
3.3360498 -0.27437019 0.44328475 11
5.0805001 -0.20476085 0.41196704 10.3
-1.988308 -0.17090774 0.47167268 7
-1.7061894 -0.19053721 0.49564448 7.4000001
1.4297963 -0.12326212 0.47823673 11.9
0.17491096 -0.0082687438 0.49899495 22.6
0.23938145 -0.015015781 0.4925034 24.6
2.9488192 -0.092752539 0.40783107 7.9000001
0.18068127 0.0038293153 0.49215466 20.700001
0.27038133 0.022458918 0.49957708 18.5
0.32034853 0.030845486 0.46610808 14.5
1.4670439 0.0067621469 0.4760592 9.8000002
3.2064059 0.0087069273 0.41585523 6.9000001
3.9871421 0.05931282 0.40033275 7
4.122613 0.076139435 0.46984237 18.75
2.6331444 0.14408609 0.46385536 20.799999
2.7451136 0.13701645 0.40015703 21.1
3.0506735 0.15880004 0.46913621 7.9000001
3.9973538 0.16910787 0.40186909 8.3000002
4.0047736 0.19902048 0.4141717 25.1
4.1582127 0.16272405 0.45773211 8.8999996
4.2447515 0.19194551 0.43365079 22.700001
2.3648548 0.27589443 0.41986805 19.6
2.4995389 0.21358132 0.44509795 19.6
3.2305512 0.28206965 0.49369305 8.6000004
3.9683628 0.22090298 0.41582727 6.3000002
4.0561461 0.21518534 0.42481673 10
4.1807928 0.23123297 0.41806099 23.6
4.3339171 0.21703917 0.4862012 27.950001
2.7332327 0.3387686 0.4312622 8.1000004
2.8410122 0.32865587 0.45550686 9.5
2.9461801 0.39380568 0.42312461 15.6
3.1500993 0.34994352 0.44180363 9.7000008
3.2400258 0.33116317 0.47699809 6.5999999
0.29314047 0.45474625 0.41560331 11.6
3.2794647 0.43848616 0.47277009 6.6999998
12.261108 0.47290605 0.47991523 15.7
2.9367685 0.57179934 0.44468814 6.4000001
3.3086207 0.51121682 0.43235028 9.5
5.206882 0.5016945 0.49253067 8.6000004
2.7930975 0.63036239 0.41548818 9.8000002
4.9614077 0.60062623 0.46114528 9.1000004
5.1931772 0.68009579 0.41311216 18.299999
3.1784542 0.75427151 0.45106661 6
5.0435934 0.83806247 0.4905718 9.6999998
7.1790719 1.007061 0.42223293 17.049999
0.87193346 1.1080029 0.492136 15.2
6.8830132 1.1811851 0.40993261 8.6999998
7.005105 1.2030761 0.43957821 9.6000004
7.1283717 1.2290518 0.41510814 8.3000002
-8.1068211 1.4997587 0.49085772 6
6.9912844 1.4030738 0.41182822 20.799999
7.113224 1.4249536 0.44877523 18.9
7.2074413 1.4834086 0.45669213 9.8000002
0.90195656 2.0487132 0.42669296 10.8
-8.1540375 2.3943641 0.4866547 9.6000004
-0.096263081 2.5786972 0.47821769 12.3
-4.9793034 2.6374929 0.47461817 7.8000002
6.7489252 3.4695168 0.48680618 11.6
6.7326365 3.7498753 0.40247583 6.9000001
-8.1747608 4.0052986 0.47943527 14.3
-7.8130212 4.0551577 0.48580858 10
-8.1318092 5.6419439 0.46858591 8.8000002
-8.8576775 -22.725334 0.57160974 8
-8.5252132 -22.458698 0.59878331 7.0999999
-9.8306999 -21.048313 0.57095587 11.2
-9.8640118 -20.923006 0.5185672 10.3
-10.314404 -20.604017 0.53694105 12.5
-12.031342 -20.590107 0.57211977 14.3
-9.8281422 -20.193779 0.59541112 10.8
-8.1758223 -20.196743 0.58946693 9.5
-11.304721 -19.410315 0.56927216 6.0999999
-11.490891 -19.265896 0.5546844 13.4
-11.942576 -19.133415 0.55239654 9.6999998
-12.530316 -18.841732 0.55060536 6.3000002
-12.641804 -18.770697 0.56365067 11.2
-14.350491 -18.46274 0.54017365 16.5
-13.30383 -18.426958 0.58780974 8.1000004
-13.217336 -18.395824 0.56351912 10.9
-13.502913 -17.960129 0.54824364 12.2
-14.114858 -17.654619 0.58229244 8.6000004
-15.071424 -17.063711 0.53370404 10.1
-13.329259 -16.760267 0.50673735 21.5
-9.1873417 -16.771976 0.50295269 13.2
-13.215034 -16.605585 0.53036445 7.8000002
-9.1186447 -16.254286 0.51666814 12.2
-15.023029 -15.83481 0.59537005 11.9
-10.463585 -15.583529 0.51251483 9.5
-9.3089027 -15.449305 0.56328368 13.2
-14.081158 -14.706011 0.51318336 30
-9.4635859 -14.707366 0.55546319 13.9
-18.604603 -14.49613 0.53822118 24.5
-10.577192 -14.429274 0.57258099 7.9000001
-15.12244 -14.389168 0.5500387 10.7
-10.669597 -14.286978 0.58735251 8.3999996
-14.944818 -14.154816 0.52450478 9.1999998
-11.299211 -14.134938 0.52844721 7.5
-16.323694 -13.923876 0.59324992 11.8
-9.9267883 -13.926263 0.59491068 9.6000004
-19.573742 -13.835869 0.53199595 15.1
-10.808562 -13.871561 0.58092618 8.5
-11.398039 -13.705407 0.51265496 20.6
-10.612206 -13.666822 0.55218619 15.9
-11.868608 -13.569987 0.54137444 13.3
-11.852274 -13.448681 0.53010267 7.1999998
-11.254175 -13.485131 0.55939603 18.9
-19.114864 -13.274887 0.58302748 9
-12.733786 -13.197305 0.57175994 17.799999
-12.459594 -13.19924 0.54897022 10.65
-12.011503 -13.103243 0.52091277 10.2
-11.750885 -13.175169 0.50455451 12.9
-8.9691458 -13.186638 0.55097765 11.7
-12.195148 -13.019359 0.51230919 6.0999999
-11.839203 -13.098751 0.54161584 15.7
-10.927711 -13.06458 0.58568221 8.6999998
-12.973985 -12.921457 0.54298246 10.3
-12.027719 -12.972731 0.57709825 7.6999998
-11.951894 -12.993244 0.55904335 11.6
-12.827278 -12.803428 0.58398813 10.7
-12.635554 -12.710863 0.5487529 9.1999998
-10.920606 -12.678795 0.59746063 9.6999998
-19.914593 -12.59707 0.54745197 21.200001
-12.192425 -12.502701 0.56006056 32.099998
-10.976779 -12.574471 0.58644599 9.6999998
-10.322908 -12.527361 0.56901789 11.2
-13.36787 -12.082598 0.50377095 11.7
-11.84456 -11.971769 0.50742936 15.8
-19.460308 -11.892647 0.58384931 10.3
-11.518385 -11.741918 0.56499463 25.200001
-11.164898 -11.765821 0.56223428 7.8000002
-10.754704 -11.635607 0.5780443 9.8000002
-11.461987 -11.535313 0.53250134 22.200001
-10.879048 -11.583049 0.50183409 6.6999998
-10.690222 -11.528654 0.55905569 16.1
-11.780956 -11.269809 0.53671962 10.9
-11.58575 -11.105588 0.58937895 18.1
-17.419939 -10.839042 0.52316231 14.1
-10.445982 -10.822703 0.53251207 7.6500001
-11.608745 -10.746904 0.59769583 15.2
-17.435055 -10.609381 0.55878365 10.5
-11.008155 -10.648688 0.51344186 8.5
-17.630365 -10.591397 0.5178234 35.200001
-12.027691 -10.588243 0.51584208 9.8999996
-11.227786 -10.513766 0.5150277 9.6999998
-11.107047 -10.426783 0.59184611 11.1
-10.467015 -10.44875 0.51894474 16.1
-16.459106 -10.328487 0.50560677 22
-11.086699 -10.377128 0.50475103 12.8
-11.433558 -10.262825 0.5885675 20.1
-10.916348 -10.136114 0.57523471 17.5
-9.9634466 -10.11704 0.59329516 20.299999
-10.927481 -10.068982 0.50423932 11.5
-18.772026 -9.9512339 0.517079 15.7
-11.181876 -9.9974041 0.58327043 16.9
-10.973291 -9.9234276 0.59436727 24.200001
-10.296746 -9.9610338 0.57231605 12.5
-11.284781 -9.8570662 0.57381123 8.3999996
-10.872616 -9.8533916 0.57991767 15.4
-9.8221397 -9.8039923 0.5477432 20.5
-11.368185 -9.7515497 0.54007649 9.1499996
-11.611059 -9.6920643 0.56445307 15.9
-11.605818 -9.4413128 0.53438127 17.299999
-11.638316 -9.2268009 0.51091385 8.3000002
-10.582384 -9.2389622 0.52920341 11.3
-10.416581 -9.2286711 0.53731012 10.5
-17.035015 -9.0090065 0.56564426 16.700001
-17.272297 -8.9060097 0.52419549 11.7
-10.14712 -8.9233379 0.56215048 7.3000002
-11.179329 -8.8053923 0.56010544 8.3999996
-9.943737 -8.7217789 0.55474466 7.5999999
-17.229836 -8.6108179 0.54828781 6.8000002
-17.09569 -8.6899204 0.52943683 11.1
-9.9041004 -8.6234436 0.58430052 7
-17.401163 -8.5547523 0.56747746 8.5
-9.8706646 -8.5203657 0.58279353 9.8999996
-10.128761 -8.3488464 0.53970081 9.1999998
-9.8249016 -8.3744345 0.56984168 7.3000002
-9.872364 -8.2629471 0.57228625 6.1999998
-15.991241 -8.1813602 0.5360949 8.5
-9.5556831 -8.0677042 0.57501048 8.6000004
-9.7145185 -7.8661041 0.57745922 12
-9.7324772 -7.7358842 0.55080521 19
-9.6752234 -7.7442265 0.51958585 13.3
-9.5817385 -7.7775207 0.50332421 6.3000002
-15.954919 -7.6706538 0.5551191 9.3999996
-9.71387 -7.6108322 0.54202068 25.1
-9.6896067 -7.6149492 0.51387918 19.6
-9.6705828 -7.489542 0.50542778 25.5
-9.5642309 -7.4448967 0.56202269 7.5999999
-9.4048529 -7.310462 0.53877276 12
-16.41485 -7.148653 0.53419936 22.200001
-16.315233 -7.0232439 0.59686065 9.8000002
-9.4565554 -7.0961852 0.54646701 8.6000004
-9.3155708 -7.032402 0.53958797 8
-9.2744484 -7.0296884 0.51655304 12.1
-9.3768902 -6.9480796 0.5139066 7.9500003
-9.2567797 -6.9165821 0.51118708 14.3
-9.3192196 -6.8372793 0.50953776 7.9000001
-16.67981 -6.71873 0.59182113 19.4
-10.641675 -6.7745237 0.56268513 10
-9.3295431 -6.7802615 0.52633697 8
-9.2276688 -6.7960439 0.5698781 12.5
-16.628904 -6.6539879 0.55908638 13.2
-16.591824 -6.6809959 0.50916505 12.8
-16.342247 -6.668272 0.55020249 12.3
-9.1705227 -6.6842046 0.53384018 18.9
-16.466658 -6.5779829 0.54407209 8.6000004
-13.009961 -6.5724096 0.54781675 11.3
-9.109561 -6.573802 0.51944572 24.700001
-8.8334656 -6.5320659 0.53476274 8.6999998
-8.6643906 -6.5297909 0.52864838 11.4
-16.480309 -6.4278202 0.52690935 9.1000004
-16.332268 -6.4842439 0.59598064 12
-9.0751629 -6.4661403 0.56909508 17.450001
-8.7596169 -6.4386454 0.55453384 8.7999992
-9.0312862 -6.3810205 0.57758254 24.200001
-8.9753036 -6.3442597 0.538284 22.049999
-8.4616222 -6.3542976 0.58936274 8
-10.923404 -6.2922273 0.52149552 11.1
-8.659234 -6.253849 0.54274476 19
-8.4645824 -6.2058682 0.58289236 13.5
-13.20831 -6.1888008 0.56102389 13.6
-12.409163 -6.1364317 0.57869869 14.8
-8.5811148 -6.1543107 0.5311048 24.700001
-8.465642 -6.1879244 0.52105701 7.9500003
-8.3135252 -6.1457953 0.59753776 6.1999998
-8.295126 -6.1308322 0.592821 13.5
-15.466278 -6.0674105 0.57183576 6.5
-8.4280519 -6.0703578 0.56100947 19.700001
-8.3760834 -6.0858622 0.57511795 6.1999998
-8.0574894 -6.0633478 0.59535295 8.6000004
-7.9969974 -6.0933633 0.57086724 10
-15.411741 -5.9679508 0.54586273 13.1
-12.609573 -5.9303164 0.55348825 11.8
-11.717235 -5.9101734 0.50939763 8.3000002
-8.3264332 -5.9927149 0.56011343 25.5
-8.2551193 -5.9962783 0.56971639 19.6
-8.1598186 -5.9343877 0.58062565 22.25
-8.0183563 -5.9979982 0.58829683 8
-7.6072998 -5.996109 0.52024931 9.6999998
-7.5199785 -5.9131069 0.56549811 8.6000004
-8.0848598 -5.8525105 0.57921654 25.5
-7.8095055 -5.8956127 0.59190202 9.8999996
-7.7501616 -5.8380332 0.52081263 9.6999998
-7.6777296 -5.854332 0.52607477 9.5500002
-7.5168447 -5.8324227 0.54956484 13.4
-7.4690261 -5.8340912 0.54326284 8.6000004
-16.954273 -5.7544932 0.59834605 19.299999
-10.142231 -5.7156901 0.5306356 10.3
-9.4132881 -5.7447233 0.5529272 7.5
-8.019681 -5.7706842 0.58446509 12.3
-7.407939 -5.7134275 0.54221874 9.1999998
-7.3098388 -5.7675395 0.56568623 9.8000002
-13.315821 -5.623322 0.54988658 9.3999996
-11.712922 -5.6085796 0.54742801 13.1
-7.3114557 -5.6597786 0.52739894 9.1000004
-7.1429048 -5.6470041 0.54792762 9.6000004
8.5887766 -5.6598101 0.58416414 6.6999998
-15.86264 -5.5039368 0.56674755 13.2
-7.9927807 -5.5268955 0.52861255 11.6
-7.0966721 -5.5635233 0.52173543 9.3500004
-6.9319024 -5.5586519 0.51285547 7.9000001
-9.6760683 -5.4266653 0.59051859 7.8000002
-7.0191145 -5.4347448 0.54582703 14.35
-6.9862413 -5.449441 0.59123206 13.2
-6.8509045 -5.4843597 0.52160907 9.8999996
-6.7179275 -5.4191122 0.50260764 9.3000002
-6.4108191 -5.4641905 0.56508017 8.1000004
-10.857513 -5.3958673 0.55547577 6.9000001
-9.8020277 -5.3235331 0.55490535 8.1999998
-6.9154606 -5.3274918 0.57481992 25.1
-6.853878 -5.3497667 0.52425259 14.450001
-6.7619333 -5.3973155 0.53320241 9.3000002
-6.6719851 -5.3154945 0.59442234 14.2
-15.62872 -5.2033634 0.56647509 17.700001
-15.478889 -5.2257652 0.51533425 9.25
-6.8243384 -5.2765169 0.55224532 22.15
-6.7213659 -5.2471848 0.57602125 19.4
-6.5626912 -5.2235246 0.55825984 13.7
-15.750837 -5.1759729 0.51561558 13.6
-13.580786 -5.15131 0.51317275 9.8999996
-7.0819874 -5.1581421 0.51865411 9.6999998
-6.7509065 -5.1931753 0.55795068 25
-6.6235557 -5.1733303 0.56130511 22.599998
-6.509625 -5.1191101 0.55833364 25.700001
-6.4719858 -5.133266 0.51516485 20
-6.3685822 -5.1375618 0.50189579 19.700001
-6.2478857 -5.1874657 0.58204275 9.1999998
-6.1782455 -5.1288042 0.53020269 6.9000001
-6.0349684 -5.1269817 0.51210564 8.25
-15.755167 -5.084609 0.58152127 12.5
-6.3788252 -5.0472536 0.50758374 25.799999
-6.1371489 -5.0537939 0.55128074 8.7250004
-6.0166831 -5.0624709 0.5308069 8.8000002
-5.9713697 -5.0132704 0.53679532 7.8000002
-15.766627 -4.9987469 0.53649545 6.8000002
-8.270524 -4.954412 0.57649016 8.1999998
-6.7198792 -4.9123936 0.50159311 9.5
-6.0481811 -4.9006438 0.54959309 8.5
-5.9609065 -4.9375196 0.59831768 7.1999998
-7.2365088 -4.8543372 0.51711649 13.2
-6.3118095 -4.8072801 0.57347298 14.8
-5.9249921 -4.8665705 0.55703264 8.3000002
-5.7996669 -4.8234735 0.58562779 12.6
-4.4651132 -4.8316774 0.52490622 11.3
-5.689456 -4.752326 0.57297826 22
-5.5069075 -4.7833619 0.59621358 7.6999998
-5.1552811 -4.7611728 0.5552749 9.8999996
-5.5984583 -4.6707006 0.53706402 24.6
-5.371933 -4.656631 0.57689202 16.9
-5.2488294 -4.6125531 0.55232936 16.9
-5.0526466 -4.6881533 0.53044426 9.3000002
-4.9493394 -4.6233668 0.56144667 8.7000008
-4.8483224 -4.6601992 0.51380163 8.6999998
-9.4922342 -4.5122042 0.53097725 11.5
-7.069737 -4.5870519 0.57820356 6.4000001
-5.2721148 -4.5804534 0.55771285 22.6
-5.1499872 -4.5346365 0.53199869 22.5
-4.8502064 -4.5293555 0.53459322 8.6000004
-4.4947457 -4.5065217 0.58867764 9
2.7009892 -4.5099459 0.50782263 6.1999998
-4.9827981 -4.4399405 0.59719336 19.5
-4.6412077 -4.4061527 0.57737243 19.799999
-4.5492764 -4.434926 0.53701657 12.7
-4.492712 -4.4510508 0.5651294 8.6000004
-4.3473082 -4.4756231 0.51478648 9.3000002
-10.548506 -4.3943338 0.53497392 13.1
-4.5276361 -4.346097 0.5725106 22.4
-4.4422851 -4.3428907 0.53880298 16.450001
-4.2727103 -4.3651476 0.51505905 9.6000004
-11.845568 -4.2254963 0.57575434 7.9000001
-10.441728 -4.2083707 0.54662085 13.5
-8.9321671 -4.2103467 0.57245934 24.799999
-4.4130683 -4.2874227 0.57147205 25
-4.3555651 -4.2453489 0.51665711 22.349998
-4.049181 -4.2531495 0.58870256 13
-3.9235098 -4.227953 0.53319681 13.3
-9.3000402 -4.1543188 0.50547975 6.3000002
-9.1840458 -4.1993923 0.55965352 9.6999998
-8.3457699 -4.1330438 0.57379687 12.65
-6.6956844 -4.164721 0.53769284 13.2
-4.2301593 -4.1781178 0.51387787 25.1
-3.950793 -4.1752286 0.57244086 19.4
-3.8249638 -4.1506472 0.52738416 19.700001
-8.8521481 -4.0183444 0.5920893 15.1
-8.3257637 -4.0665464 0.54521132 11
-3.8514931 -4.0977774 0.56036282 25
-3.7258446 -4.0726151 0.51141405 25.200001
5.4726629 -4.0714364 0.5597778 11
-11.554529 -3.9005628 0.57353479 21.700001
-9.2296133 -3.9700503 0.55078626 26.5
-9.0093355 -3.9774191 0.54835498 8.3999996
-7.4622803 -3.9186437 0.59123057 23.9
5.5740166 -3.9433186 0.57379448 12.6
-8.4449062 -3.894917 0.57867384 8.6000004
-8.0114498 -3.823293 0.59854555 9.1999998
-7.1208525 -3.8820963 0.56053817 6.5999999
5.1144881 -3.8633277 0.54397851 13.1
-14.458312 -3.7722075 0.51462805 14.5
-9.3888741 -3.7654605 0.54584521 11.1
-9.2683258 -3.7365551 0.53500748 9.3500004
-8.7776279 -3.7135839 0.53914684 8.6999998
-8.5765429 -3.7994671 0.50020558 7.0999999
-9.1173344 -3.6367536 0.59901619 8.3999996
-8.2547922 -3.6654191 0.51628464 13.8
-12.212431 -3.5298648 0.55161512 10.8
-8.578023 -3.5807173 0.56891423 25
-8.4904709 -3.531126 0.55429864 30.6
-2.4192333 -3.5311623 0.54763448 25.299999
-8.9552126 -3.4202108 0.57774991 10.4
-8.6163006 -3.4972863 0.56844413 11.2
-8.1574249 -3.4808323 0.50757092 18.6
-7.9946527 -3.496372 0.5105657 21.700001
-2.605263 -3.4718053 0.57289195 13.5
-2.3920186 -3.4989791 0.57153708 19.799999
-15.652012 -3.3558025 0.54115796 9.5499992
-11.191157 -3.3534079 0.58126581 9.1999998
-9.4856205 -3.371264 0.59299225 8.8000002
-8.4625664 -3.3407416 0.59790587 8.8999996
-6.2679491 -3.3589306 0.51653343 7.4000001
-2.1532636 -3.3962817 0.59501725 25.5
-2.0664659 -3.301374 0.55046588 8.8000002
-1.8653252 -3.3238244 0.55035639 19.200001
5.3129559 -3.3742177 0.52398551 9.6999998
-11.298462 -3.2939765 0.51435947 7.9000001
-10.010859 -3.2260799 0.58767641 13.7
-9.7732792 -3.2689228 0.51303017 26.9
-9.4400902 -3.2913883 0.58479011 19.799999
-9.329525 -3.2455688 0.5706495 10.15
-9.232975 -3.2408981 0.57837999 18.224998
-9.040369 -3.2679119 0.52827471 12.5
-8.7518387 -3.2406802 0.57124084 14.9
-8.3088961 -3.2811935 0.50866365 12
-1.7464055 -3.2877705 0.51367015 19.799999
5.3223872 -3.2560878 0.59439754 19.5
8.5845251 -3.2403619 0.59632802 13.4
9.5096951 -3.2529798 0.56226021 10.1
-9.0518484 -3.1327341 0.58514845 25.5
-8.8828936 -3.1540637 0.51200831 15.3
-8.7166414 -3.1296544 0.5175193 13.8
-4.8387108 -3.1161761 0.54732627 8.8000002
-1.8082732 -3.1868658 0.51301128 9.6000004
-1.5597148 -3.13957 0.53923976 19.75
0.11009407 -3.1112933 0.58171546 10.2
-8.77036 -3.0413246 0.53205454 15.5
-8.6766109 -3.0001249 0.50472623 12.5
-8.1710768 -3.0527778 0.56689918 9.6000004
-4.8816919 -3.0867865 0.56901205 13.4
-4.0660019 -3.0201788 0.52824837 12.3
-1.188717 -3.0845289 0.56047547 9.6000004
1.6892092 -3.0291896 0.54076523 9.5
-9.6994057 -2.9906623 0.54048729 9.1000004
-9.3150787 -2.9878833 0.50623554 29.700001
-9.1646805 -2.9571416 0.55174333 6.5999999
-8.9128103 -2.9190106 0.59756637 14
-8.8851395 -2.9185247 0.58763015 10.3
-8.5682173 -2.9099154 0.53816849 11.2
-7.9915266 -2.9536471 0.50200295 8.1999998
-1.2365713 -2.960794 0.51483285 19.700001
-1.0031582 -2.9334307 0.54149055 25.299999
-0.4019455 -2.9824603 0.59941494 10.8
0.27304631 -2.9913015 0.51294851 9
9.4874496 -2.905303 0.55654985 11.1
-5.0000486 -2.8776298 0.59115636 14.4
-4.975975 -2.8590713 0.51552773 9.1000004
-4.721087 -2.8176854 0.52222794 20.4
-4.6041627 -2.889245 0.54755163 33.099998
-12.778313 -2.7255492 0.53743577 9.3000002
-8.3617287 -2.7883396 0.58436298 15.9
-5.0642586 -2.7220416 0.59768975 12.9
-0.3297973 -2.7919445 0.55667043 8.8999996
0.59947133 -2.7995343 0.57906955 9.6999998
-8.9751987 -2.6686153 0.58558798 16.299999
-8.4329252 -2.6835876 0.55142581 18.200001
-4.8607135 -2.6859179 0.50426412 25.099998
-4.2336354 -2.6791615 0.57130837 13.3
-4.9376779 -2.5339513 0.59661674 12.8
1.1645046 -2.5308707 0.51935196 9.1000004
-9.2892733 -2.4413178 0.59476197 17.4
-8.9526978 -2.4437056 0.56065899 14.7
-7.8344259 -2.4978533 0.54440844 18
-4.9778347 -2.4113324 0.54000747 13
-4.6431651 -2.4592073 0.55971193 36.400002
9.2599287 -2.4504676 0.58902788 11.5
-5.1244678 -2.3301415 0.54346621 7.0999999
-9.9922199 -2.2775159 0.55626112 11.1
1.3740273 -2.294806 0.54161137 9
1.4754153 -2.2123361 0.59228951 9
-9.8451557 -2.1493621 0.54447997 6.3000002
-9.236414 -2.1235058 0.53919739 14.3
1.501799 -2.1857963 0.52491611 13
2.4446945 -2.1213465 0.58134645 6.6999998
-9.5601358 -2.0953162 0.57140779 19.1
-5.5187721 -2.0056472 0.53279245 7.0999999
-0.86915916 -2.0358548 0.52821887 8.3999996
-12.763209 -1.9771105 0.54998565 10.4
1.4381957 -1.9883032 0.52076471 19.6
-9.6960125 -1.8167701 0.52398318 13.6
-9.4652081 -1.8979793 0.59330708 11.2
-8.2748919 -1.8556004 0.51038176 6.6999998
1.4742901 -1.8364519 0.59489912 24.700001
-8.7126265 -1.629681 0.5660336 10.8
3.2502248 -1.6853325 0.53515345 18.299999
7.6942291 -1.6138148 0.55722636 6.3000002
7.8213897 -1.6304121 0.51003629 6.3000002
9.3936682 -1.6119139 0.59104168 11.8
-8.7726278 -1.5135704 0.58755291 7.5999999
1.4893956 -1.5994382 0.56295717 25
1.9057735 -1.511505 0.535568 7.3000002
-8.4846039 -1.313188 0.56061751 24.9
1.4948111 -1.3104523 0.58023506 25.299999
7.3132687 -1.3490498 0.57607484 24.1
-8.6064854 -1.2895386 0.57698607 16.700001
1.4417548 -1.2964938 0.56710911 25.4
2.754277 -1.1773001 0.59380102 6.5
1.4676114 -1.0137944 0.56036699 24.700001
7.1413288 -0.97953403 0.59848124 21.700001
7.2789817 -0.82362872 0.59474945 20.5
3.3786633 -0.71883297 0.59685224 8.1999998
1.2729995 -0.64096534 0.59602356 25.5
2.7880676 -0.69135731 0.52280414 8.8999996
5.1734328 -0.67707157 0.53253627 9.5
3.4349222 -0.5346489 0.5566684 19.25
4.1523232 -0.51894277 0.58321595 6.4000001
3.2886763 -0.47101843 0.50577247 10.3
5.3728623 -0.45920694 0.50655091 9.5
2.3875899 -0.32949278 0.52771294 25
5.4526911 -0.35701084 0.50411326 10.5
1.6165435 -0.23776776 0.57138592 7.9000001
2.8939929 -0.21592124 0.52681756 21
3.0222785 -0.2120789 0.50545245 7.4000001
-1.4489056 -0.13093734 0.51659191 12.4
0.58710885 -0.11718906 0.58815384 14.3
3.9772766 -0.13704276 0.56215268 25.1
4.2126174 -0.15313506 0.54100585 13.4
-0.013475021 -0.040368296 0.550816 24.799999
0.11843219 -0.049922533 0.54263222 20.349998
0.23263466 -0.0029662699 0.51841891 21.799999
0.36213678 -0.047863081 0.57620555 24.200001
0.46694982 -0.038586393 0.5584687 25
0.5664109 -0.027212027 0.58227712 23.549999
2.7637959 -0.035293363 0.54361528 22.1
4.0789309 -0.049004629 0.52948195 8.8000002
0.14673829 0.027660426 0.55350786 16.125
0.26885819 0.015950391 0.56526023 13.156666
0.38226876 0.033334479 0.56406975 21.799999
1.4046208 0.0010495037 0.54462016 6
3.3207152 0.0063337088 0.51664627 8.1999998
4.2258692 0.078155577 0.59070063 8.8000002
4.4796715 0.011707455 0.52237296 26.4
0.52036643 0.10478653 0.52752429 6.0999999
1.3661044 0.13632375 0.51216638 8.6999998
2.8486109 0.14955808 0.55868322 17.25
4.3443565 0.1284579 0.54131609 20.200001
-8.3762493 0.2349999 0.54907429 6.8000002
2.345155 0.22745074 0.59678364 8.6999998
2.7223244 0.22358218 0.50020057 9.3999996
2.8431396 0.23924841 0.53055513 19.066668
3.1280196 0.20743306 0.50332731 6.0999999
4.06218 0.2010154 0.55735236 7.8000002
4.301363 0.28318703 0.56945342 10.6
0.32113254 0.3985393 0.54637045 8.6000004
1.0091991 0.35802305 0.59863764 8.5
3.1100419 0.36710751 0.55088383 10.4
3.2769904 0.30670699 0.52002573 7.5
3.1855845 0.4492138 0.54546249 16.549999
3.0405192 0.56333709 0.54284632 10.3
5.0889063 0.51804149 0.55289692 7.3000002
0.53338534 0.62477756 0.57825428 6.3000002
2.5341511 0.60665953 0.51489604 23.299999
7.0090895 0.75825226 0.56028175 10.5
7.0495152 0.98831528 0.52931166 14.6
7.1788602 0.98556471 0.51982254 21
3.2359111 1.0173415 0.55703628 9.8000002
6.8472319 1.6767231 0.59453362 9.6999998
0.36430511 2.29318 0.55821174 9
0.38428915 2.4170704 0.56475002 9
6.8387337 2.4677689 0.5797264 7.0999999
6.866961 2.7459495 0.52035332 10
-8.27565 3.088994 0.52365929 15.7
6.7903428 3.368295 0.5794788 8.6999998
-7.5005112 3.4032569 0.51311183 7.9000001
-7.4535656 3.433151 0.57915664 19.5
-7.8856797 3.7548568 0.54211122 14.8
-7.1412325 3.7449057 0.50912791 6.9000001
-7.0578604 3.8599927 0.55123097 14.2
6.2133574 4.4262505 0.59964484 9.3000002
6.1784973 4.7376103 0.52321088 7.1999998
5.6626616 5.382504 0.5476656 7.5
-7.869905 5.8080072 0.53826147 12.7
-8.2930489 6.0049973 0.548949 15.7
2.9353766 6.225832 0.52514744 7.6999998
3.1599381 6.2475386 0.51917297 7.5
-7.5268307 6.6171665 0.56650382 13.4
-7.2143254 6.7359996 0.53724849 10.5
-8.4926548 -22.579891 0.60548896 6.3000002
-8.2792797 -22.417107 0.61328036 22.5
-9.6306763 -21.236118 0.68782884 9.1000004
-9.2954502 -20.244034 0.64010376 10.8
-8.3735275 -20.135115 0.6422962 27.9
-11.211435 -19.465723 0.66956329 13.1
-10.031648 -19.238354 0.62274063 8.6999998
-12.499659 -19.037752 0.64863473 11.3
-17.059259 -18.703651 0.6601249 10.1
-12.955635 -18.782242 0.65650475 11.5
-12.642202 -18.730873 0.69459432 8
-12.971328 -18.584288 0.68534243 11.3
-13.382937 -18.410561 0.60447717 9.8000002
-12.745402 -18.469986 0.64793056 9.5
-13.247382 -18.357407 0.6413697 11.5
-13.744027 -18.128441 0.61251277 28.5
-10.995724 -17.753262 0.69519597 9.8999996
-14.928131 -17.330847 0.65237069 19.700001
-12.587619 -17.043036 0.64364362 12.3
-9.0769167 -16.879038 0.64239275 10.1
-13.25367 -16.658833 0.65906155 19.6
-14.458698 -16.322796 0.69392258 34.599998
-14.288809 -16.374557 0.67666435 7.5
-14.973414 -16.005632 0.65357339 11.3
-14.333839 -15.762218 0.6567021 9.8000002
-12.58509 -15.691747 0.65024424 12.8
-10.714071 -15.63615 0.6692571 21.299999
-7.6624346 -15.647288 0.6104387 19.5
-15.135044 -15.582273 0.61442459 14.2
-9.1833296 -15.543291 0.68170846 10.1
-14.67757 -15.407574 0.69955492 11.7
-13.365519 -15.466019 0.66285455 16.799999
-9.2658377 -15.486446 0.65642828 10.3
-9.7779341 -15.315624 0.629834 10.5
-8.945694 -15.290071 0.60738516 7.5
-14.112803 -14.878009 0.6236679 8.1999998
-10.35096 -14.803587 0.68882465 6.5
-10.241562 -14.62176 0.64276654 9.6999998
-11.361623 -14.531727 0.62223446 16.5
-10.100624 -14.434962 0.64063632 6
-19.697327 -14.366198 0.69195122 8.1999998
-15.913495 -14.229271 0.62727284 7.9000001
-15.048401 -14.28324 0.68835944 9.5
-10.47619 -14.167579 0.66715646 7.3000002
-10.873611 -14.058867 0.65378666 8.8000002
-10.122793 -14.019643 0.65991336 6.4000001
-11.16656 -13.935503 0.64807236 10.9
-10.998829 -13.955173 0.63436526 17.700001
