# .PCD v0.7 - Point Cloud Data file format
VERSION 0.7
FIELDS x y z intensity
SIZE 4 4 4 4
TYPE F F F F
COUNT 1 1 1 1
WIDTH 1165
HEIGHT 1
VIEWPOINT 0 0 0 1 0 0 0
POINTS 1165
DATA ascii
778.06616 -249.49725 -36.115314 6.5833335
756.03418 -248.11273 -36.020226 14.18
776.38293 -248.72339 -36.456444 6.1999311
777.39941 -248.54553 -36.36166 5.496666
777.73706 -248.58139 -36.351273 5.3812037
755.48767 -247.45842 -35.780998 6.212863
763.42078 -246.55826 -36.445496 11.2
763.81299 -246.55919 -36.297424 11.2
773.89221 -246.71515 -35.821346 12.219411
774.14075 -246.57236 -36.840549 12.998888
753.49719 -245.41643 -35.891636 7.6100001
763.5 -245.64948 -36.416763 7.6399999
763.86157 -246.01231 -36.562862 8.2312498
771.61053 -245.82503 -36.305107 9.744051
773.30017 -246.09125 -35.927525 12.71331
774.59875 -246.03018 -36.34655 14.2698
789.56476 -245.37129 -35.88063 5.73
753.25452 -244.90768 -35.841652 9.0600004
753.58966 -244.64075 -35.751785 9.0600004
763.26465 -244.51274 -36.433056 7.1798258
771.55255 -244.19696 -36.467358 12.918118
772.7959 -244.82016 -35.73278 10.934999
780.61444 -244.23619 -36.294773 6.4699998
788.67175 -244.10339 -36.609612 8.7150002
789.87451 -244.25461 -35.61491 10.77
791.23322 -244.29778 -36.351284 6.9470482
791.79993 -244.16248 -36.840157 6.9200001
771.18652 -243.31033 -36.244026 9.4679375
771.61646 -243.45547 -36.271011 11.310469
780.08826 -243.54303 -36.129639 6.5500002
788.58112 -243.27744 -35.97583 7.6458335
789.56512 -243.38908 -36.339031 8.6240282
791.35303 -243.05943 -36.513206 7.6117959
792.02185 -243.54346 -36.504971 6.9200001
772.14374 -241.70081 -36.651501 11.389999
773.23688 -242.61707 -35.982582 4.7399998
789.03986 -242.49139 -36.267555 7.4384379
787.25043 -241.10048 -36.482426 6.4614067
775.86609 -238.13301 -36.275719 9.3199997
777.99133 -238.2372 -36.284081 8.3900003
768.67267 -236.80885 -36.106728 12.009969
769.46808 -237.36983 -36.329163 8.9499922
770.58435 -237.46518 -35.611347 7.4000001
775.96173 -237.15259 -36.412903 9.5700569
777.12335 -237.03397 -36.152603 9.8849983
778.00342 -236.92026 -36.307232 8.7653551
768.13708 -235.81694 -36.39917 9.3706532
769.52673 -235.14519 -36.173824 12.940732
767.19165 -234.48499 -36.309471 8.8800001
768.00049 -234.98456 -35.901489 10.68005
769.45703 -234.94804 -36.327415 8.550539
768.25201 -233.47443 -36.531929 7.8711109
766.14185 -230.66914 -36.16711 13.523728
766.70923 -230.70592 -36.751392 14.325308
767.81995 -230.87732 -35.942883 11.684999
777.56 -230.61694 -36.264454 9.9449348
778.20483 -230.186 -36.12722 9.0421057
750.42188 -229.30998 -36.163193 12.159999
767.67871 -229.87967 -35.972122 9.7799997
777.20654 -229.68707 -36.421379 11.313732
750.27905 -228.41248 -36.037182 14.372083
766.98096 -228.14124 -36.142063 11.915587
766.20117 -227.42618 -36.535412 11.012419
766.81287 -226.78653 -36.236317 11.54542
767.60315 -227.20569 -36.504044 10.62
777.20935 -226.2851 -36.106155 7.9565067
777.84363 -227.01532 -36.841225 11.810469
764.47888 -225.09308 -36.555092 10.505001
765.45209 -225.5575 -35.731934 8.0799999
766.5874 -225.76814 -36.036591 14.638168
774.76843 -225.9165 -36.25494 11.520461
776.74005 -225.8783 -36.633503 9.9978848
778.23602 -225.15721 -36.277576 8.7750015
766.67914 -224.36304 -35.961689 11.372952
772.35187 -224.0506 -36.10321 12.641206
766.30859 -223.20639 -35.985603 10.91
771.41827 -223.35686 -36.035286 7.9299998
743.18518 -221.3763 -36.778511 11.17
767.34058 -221.74121 -36.079197 10.448906
773.53052 -222.3067 -36.479431 12.08
742.78613 -220.62077 -36.665859 10.59
746.84338 -220.66608 -35.674606 10.54
747.65179 -220.37054 -35.768471 8.1300001
749.26324 -219.90448 -35.803856 10.900068
752.22723 -220.65404 -35.846245 15.326667
753.23395 -220.39119 -36.231552 12.406555
766.87988 -220.09195 -36.227631 10.650162
767.69836 -220.03062 -35.690083 15.226576
753.35132 -218.93336 -35.831837 9.656889
755.03418 -218.99989 -36.333176 7.5100002
766.95203 -218.93631 -36.52277 17.086166
767.73291 -218.7084 -36.16481 12.360924
753.22162 -218.34692 -36.239792 11.078287
753.72919 -218.34094 -35.747192 9.2597141
755.57587 -217.83855 -36.200096 13.071183
753.85608 -216.39673 -36.348888 9.3181019
754.90588 -216.63322 -36.781921 8.5995312
767.31812 -216.34509 -36.168037 10.51
768.23822 -216.72568 -35.974102 15.419685
745.64935 -215.1313 -36.065983 10.93
752.18976 -214.99748 -36.039597 9.4289474
753.30554 -215.72025 -36.257591 8.6832285
767.47632 -215.14279 -36.162041 10.32386
768.61102 -214.87585 -36.23465 19.114805
769.39282 -215.21034 -36.483418 15.861091
770.6861 -214.88104 -35.668427 10.33
744.51062 -214.19757 -35.611221 13.26
748.2785 -213.56483 -36.009907 10.225558
749.1441 -213.78693 -35.944542 12.910352
750.34729 -213.89279 -36.256874 11.143702
751.67029 -214.15369 -36.028061 9.5792799
753.16895 -214.09001 -36.43877 9.2665405
768.51935 -214.75146 -36.24036 17.793839
769.40771 -214.37796 -36.602989 16.716322
743.17242 -212.79657 -35.684586 8.0900002
745.38092 -212.96948 -36.211823 11.972156
746.55725 -212.81982 -36.066895 10.645503
748.04254 -212.83098 -36.329807 10.122093
749.09656 -212.80783 -36.122211 10.515723
750.25378 -212.70877 -36.616486 9.6238136
751.23047 -212.77553 -36.37043 9.0450058
768.3855 -212.88837 -36.740227 10.632924
769.52393 -212.94299 -36.218761 11.906766
770.54681 -212.88351 -36.231468 9.1620808
768.56329 -211.81712 -35.890339 9.6347961
746.51794 -209.80374 -35.847214 7.9649992
747.99408 -210.54756 -36.121769 7.8252468
748.61011 -210.1149 -36.266403 8.1549997
746.7525 -208.74049 -35.825802 8.2428656
747.64722 -208.5592 -35.890728 7.86625
749.26215 -209.05745 -36.292747 7.7749996
746.54321 -207.41232 -35.883957 8.1500149
748.29901 -207.59579 -36.052177 8.3581486
749.23029 -208.07771 -36.233673 7.8225989
749.8432 -207.63045 -36.454903 7.98
725.00134 -206.10356 -35.685585 7.3400002
726.21698 -206.15907 -35.609459 13.5725
728.09796 -206.05005 -36.759407 6.3299999
728.26093 -206.1601 -36.099869 6.551909
743.06378 -206.46585 -35.593277 8.486124
744.77673 -206.51231 -35.665642 8.2605972
746.65015 -206.50879 -35.807796 8.0861549
725.98865 -205.66893 -36.097389 11.238102
727.73523 -205.5358 -36.010666 8.1162033
728.65491 -204.92603 -35.811588 7.54
729.46863 -205.22818 -35.847801 6.0599999
744.18652 -205.19592 -35.701721 8.9536381
745.19812 -205.48956 -35.746582 7.2112498
747.55273 -205.45714 -35.684883 8.876667
727.77728 -203.68347 -36.496071 14.011263
743.71149 -204.36555 -35.603252 8.0699968
744.69556 -203.69324 -35.647583 8.0799999
776.62341 -203.78604 -36.206978 13.815453
726.02344 -202.48494 -36.03064 9.5500002
723.47229 -201.33984 -35.627571 9.6327066
745.42139 -201.57811 -35.822037 12.229414
750.81281 -201.2467 -35.795361 10.46
723.04712 -200.25409 -35.747543 8.5299997
746.5741 -200.27841 -35.700451 8.0500002
778.46552 -199.84598 -36.14315 9.3961439
779.56287 -199.6362 -36.100624 9.4251299
780.41919 -200.15436 -36.099464 9.0947638
722.82587 -196.62506 -36.312016 10.644173
784.35992 -195.99023 -35.745327 10.82
782.06995 -194.60518 -36.020924 6.3600001
783.41516 -195.30797 -35.94397 8.3944445
754.13306 -194.28027 -35.598938 7.7866669
716.44897 -187.66942 -36.364407 12.210178
713.68988 -184.55573 -36.727852 12.824421
712.96619 -183.59245 -35.836166 13.967011
711.96045 -182.36536 -35.963188 8.6626205
725.98389 -177.48811 -36.202576 11.71038
707.27448 -175.24107 -35.77121 10.495
723.90375 -174.47322 -36.255054 10.85431
724.09338 -173.07967 -36.122643 12.002096
721.74585 -171.62383 -36.806267 10.779945
722.16028 -172.20651 -36.34063 7.9200001
721.73755 -171.40536 -35.956867 10.541667
21.945673 170.87706 -35.803646 5.7399998
922.61053 -371.28659 -34.390171 7.3400002
921.98016 -370.70071 -34.387901 7.8800001
853.41571 -359.96765 -34.667049 7.6166668
854.55457 -359.80933 -34.551773 9.3699999
854.43268 -358.78314 -34.588444 8.0174999
855.93536 -358.4537 -34.918755 9.2025003
854.9967 -357.84335 -34.914444 9.0749998
856.27075 -357.43469 -35.312778 9.3270836
857.16327 -357.62305 -34.839054 10.378472
858.78784 -357.27295 -34.962776 14.523334
854.83508 -357.08853 -35.514877 6.2199998
855.79791 -356.27307 -34.723461 6.6937499
856.79407 -356.41159 -34.698799 9.1049995
858.34692 -356.17172 -35.291458 11.8275
859.44312 -356.60779 -35.08445 12.605
860.64697 -356.56665 -34.776352 17.43
856.26257 -355.67947 -35.059795 5.7474999
862.64587 -348.35147 -34.927608 6.8800001
862.3067 -347.58698 -35.195225 8.0227776
863.52032 -347.6575 -35.403423 6.8799996
864.37988 -346.96149 -35.170208 6.8800001
863.51935 -346.54547 -35.227646 8.0900002
864.46777 -346.87729 -35.193367 6.8800001
865.57178 -346.24356 -34.500389 6.96
865.03119 -345.25494 -34.367828 7.4356251
866.11444 -345.24512 -34.788197 7.5288429
866.75177 -344.54819 -35.558289 7.5255561
864.74792 -344.28711 -34.41077 10.47
866.38593 -344.30765 -34.464935 7.3000002
852.06854 -316.69827 -35.261734 16.700001
851.20844 -316.28293 -35.297073 13.87
851.47791 -316.16455 -35.410061 13.870001
769.54199 -306.63086 -35.069118 8.9050007
768.13159 -305.1424 -34.3391 9.3100004
769.15887 -305.7778 -35.071056 8.2050009
768.06531 -304.28442 -34.374832 8.8500004
803.84229 -294.18079 -35.495201 5.9299998
804.76825 -293.56195 -34.922356 5.1799998
824.15222 -294.10635 -34.687431 6.2676916
824.99896 -294.40854 -34.590969 6.8874998
799.80023 -292.86023 -35.405472 6.7507377
800.96558 -292.64722 -34.978893 6.3299999
802.89398 -292.89746 -35.576958 5.25
804.80621 -293.05862 -35.140198 5.7404995
806.53943 -293.35385 -35.193558 7.23
824.72137 -293.46893 -35.085125 6.1149998
799.97803 -292.211 -35.066769 7.4200001
801.25836 -291.82242 -35.331379 7.0499382
803.80139 -291.85364 -35.243935 8.8249998
805.90265 -292.12018 -35.331779 12.829265
801.27954 -290.30209 -34.817001 7.8400002
802.02045 -290.64969 -34.611149 6.2800002
796.4989 -288.75757 -34.76149 6.4699998
796.83643 -288.49591 -35.054256 6.4699998
798.32703 -288.54074 -34.519485 7.1500001
795.88672 -288.09747 -34.478054 9.4700003
797.0564 -288.17651 -35.091995 6.9699998
798.45178 -288.03714 -34.84642 6.8855553
797.56128 -286.96155 -34.656502 9.4700003
801.46075 -282.5145 -35.34721 8.8000002
801.87793 -282.25153 -35.449818 8.8000002
801.46753 -281.70526 -35.173923 7.7507129
802.81024 -281.54984 -35.143681 8.5766668
796.88239 -275.85306 -34.49437 7.1750002
792.26117 -274.80569 -35.355492 9.0500002
796.39636 -275.31909 -34.672894 8.1827784
791.3678 -273.50436 -35.366241 7.9275002
791.84387 -274.18781 -35.300179 7.8200002
795.70782 -274.39407 -34.910618 6.5541668
790.30768 -272.46307 -35.000984 9.0500002
790.82959 -272.76639 -35.363781 7.2150002
778.4386 -271.23822 -34.571629 9.1299992
789.74054 -271.58984 -35.122414 6.876667
895.31805 -271.07327 -34.551014 9.5284262
778.10376 -269.146 -34.796566 14.325718
768.98669 -265.72137 -35.07045 5.5500002
769.51447 -264.99326 -34.733734 8.4761963
768.75745 -263.78131 -34.322235 11.16
770.35431 -263.89172 -34.953045 9.6254168
781.32202 -263.61725 -34.901302 11.15
767.435 -262.45044 -34.590439 6.6399999
768.49023 -262.53543 -34.440018 8.3417978
769.71478 -262.59216 -34.570297 9.7183332
781.14832 -262.63879 -34.74361 9.1800003
782.04407 -262.88586 -35.033943 11.799999
783.67474 -262.48422 -34.73967 9.3775005
782.39746 -261.15057 -34.76091 7.585
783.22333 -260.98801 -34.958012 7.4635615
784.58008 -261.03656 -34.603512 10.639768
785.7514 -261.37576 -35.028389 10.153805
766.96265 -260.05389 -34.632328 8.9242134
783.11139 -260.10565 -34.941425 5.6599998
784.6759 -260.09116 -34.969189 10.982169
785.97723 -259.79236 -34.857746 9.79
760.66431 -258.3075 -34.34922 9.4300003
766.08228 -259.09808 -34.650692 10.54
766.95947 -258.61771 -35.239357 6.8099999
785.4574 -259.10529 -34.874649 7.8099999
788.46863 -258.27347 -35.368187 7.7399998
789.22394 -258.07501 -35.43084 6.6462498
760.6286 -257.55695 -34.527977 7.8614812
787.7168 -257.05975 -35.036179 8.6000004
788.57678 -257.57428 -35.189079 8.9899998
759.60455 -254.4865 -35.254944 6.5500007
756.77869 -253.66061 -35.176373 8.2299995
775.62048 -252.07611 -34.555756 8.5200005
776.14276 -251.61443 -35.123562 8.5232267
776.59875 -251.25182 -35.107983 8.5200005
755.85834 -249.5634 -34.780094 7.1200085
756.47382 -249.42691 -34.727104 6.5581245
772.4939 -247.74762 -34.71067 10.75375
773.34528 -247.15034 -35.1133 9.4365501
774.06458 -247.13681 -35.167374 7.439971
753.75488 -245.38251 -35.031956 7.6100001
772.26038 -246.09126 -35.006874 9.4176922
773.35852 -246.06186 -35.010437 11.907419
775.03619 -245.834 -35.364452 12.537087
775.19495 -245.75882 -35.292023 16.571077
790.12402 -245.50462 -35.380432 9.0900002
753.45721 -244.78575 -34.989372 9.0600004
765.53918 -244.38895 -34.499352 10.784861
771.79865 -244.64833 -34.575581 7.4691405
779.5462 -244.37648 -34.382252 6.5233331
780.77441 -244.08569 -34.908306 6.4699998
788.8443 -244.62418 -34.503998 8.4850006
789.76636 -244.34746 -34.985947 8.7168446
792.10126 -244.60355 -35.344032 6.203125
771.30432 -243.07329 -34.568436 9.0600004
772.33087 -243.15508 -34.548534 8.8800001
779.7113 -243.85989 -34.547447 6.5500002
787.72473 -243.3338 -34.890728 6.8099999
788.42169 -243.16219 -34.955166 9.4156609
787.54333 -241.98924 -35.081238 7.4299998
789.76099 -241.89018 -35.100056 7.9402199
788.66541 -240.59142 -34.885586 7.0097466
789.61023 -240.65088 -35.307446 8.7697353
788.89911 -239.97137 -35.048424 6.8438888
789.76007 -240.02046 -35.265934 8.8100004
776.88599 -238.09032 -34.567215 6.8299999
768.80896 -236.64404 -35.246017 7.9029856
770.01636 -237.03651 -34.822971 7.9878049
770.62109 -237.4427 -34.641418 7.4000001
776.41144 -237.17471 -34.609413 6.5088892
777.02557 -236.83061 -34.486233 7.6397948
768.50317 -235.93594 -35.270493 8.8647614
769.36102 -235.51456 -34.51263 11.229994
776.9231 -235.93901 -35.110508 7.4299998
777.77124 -236.27835 -34.785805 8.6099997
768.31061 -234.42857 -34.565323 9.8655415
769.74146 -233.86308 -34.37632 8.0600004
770.16455 -234.93086 -34.520081 11.24
777.89746 -234.14334 -34.72393 7.7600002
767.27014 -233.63657 -34.503242 6.8699999
768.10754 -233.44945 -34.984116 7.1193972
777.271 -233.5528 -34.683189 9.75
766.76971 -230.89583 -35.048855 11.276889
767.65021 -230.48586 -34.515594 7.8299999
750.42505 -229.44211 -34.93927 13.012852
766.82501 -229.39204 -34.917568 10.866806
767.96375 -229.71359 -34.751171 9.7799997
749.75793 -227.80452 -34.681435 6.77
749.94177 -228.15817 -35.228439 10.259892
765.43176 -227.50174 -35.49099 8.1499996
767.07764 -228.1026 -35.09938 10.767874
777.26086 -227.99367 -35.229996 9.6996403
778.16394 -227.98407 -34.572693 10.29
749.73364 -226.79532 -34.961411 6.5300002
749.89728 -226.63348 -35.475136 6.5300002
764.89294 -226.82387 -34.978745 7.7255259
765.80194 -227.08717 -34.727707 8.2046728
766.58032 -226.98706 -35.193134 10.056555
767.88287 -226.92737 -34.766132 9.0851631
777.79395 -226.49435 -34.445457 10.03
767.12872 -225.66972 -35.029499 9.8361464
777.37915 -225.64969 -34.572536 11.82
765.70685 -224.44499 -35.196655 9.7443619
766.89026 -224.31953 -35.049217 9.8058739
771.21252 -223.66641 -34.896347 7.9299998
772.08441 -224.42387 -34.640942 10.046348
750.83508 -222.82645 -34.78196 8.9205551
751.13751 -223.3698 -35.30344 9.0799999
766.53314 -222.85724 -34.919548 12.549999
767.62183 -222.46622 -34.485336 6.4299998
773.63623 -222.39294 -35.328415 8.4200001
741.25 -221.57758 -34.755249 13.9
749.40735 -221.14278 -35.082115 9.2816858
751.61432 -222.07703 -34.357796 12.035
767.0946 -221.60117 -34.823032 10.862708
767.76978 -221.33643 -35.265335 11.641094
770.46729 -221.52713 -35.123566 9.1552525
773.59485 -222.2962 -34.579689 8.0074997
740.30688 -220.33038 -34.941662 11.335864
740.96887 -221.11417 -35.347214 11.2
747.64325 -220.74757 -34.671566 9.8054123
749.06885 -219.90944 -34.823711 12.043785
750.66455 -220.50241 -34.709839 9.1000004
753.05719 -220.33752 -34.583889 10.452222
753.64075 -219.87181 -34.405952 9.0100002
767.06519 -220.57774 -34.927937 13.014244
767.68848 -220.1767 -35.01799 13.36
772.73529 -219.96814 -34.753857 11.564445
740.30426 -219.14076 -34.646915 10.856667
748.28741 -219.80954 -34.920475 8.6583271
749.71075 -219.74052 -34.53466 10.574244
751.78113 -218.8826 -35.053913 9.8279219
752.60931 -218.98495 -34.757202 10.410131
755.06964 -218.77486 -34.697353 8.8499994
767.19794 -219.22098 -35.046982 12.986668
767.80469 -219.08704 -34.893505 13.139653
772.72919 -219.82433 -34.766087 11.610001
745.35663 -217.52063 -34.635632 11.214885
746.66071 -217.86929 -34.734497 10.346952
751.81256 -218.16869 -35.282841 10.039661
753.28918 -217.94727 -34.970387 10.644023
755.76361 -217.8504 -35.061974 15.850799
756.45502 -218.46857 -34.918556 13.035
768.46674 -217.59772 -34.758797 13.146512
744.30615 -216.98865 -34.869167 10.089308
746.39813 -216.7878 -34.893799 10.538626
754.68744 -216.68738 -35.099495 11.62875
755.15106 -216.94745 -35.102238 11.25
768.40796 -216.79547 -35.202385 10.891303
769.83142 -216.46191 -34.758488 6.8191195
742.91229 -215.41258 -34.346561 11.265062
744.27832 -215.10088 -34.609859 11.131482
745.3974 -215.18088 -34.537254 10.249541
746.47064 -214.97263 -34.361984 9.4200001
753.93701 -214.80231 -34.991013 7.7399998
766.71375 -215.20618 -34.78413 9.4088888
768.21222 -215.15381 -34.512112 14.046771
768.9295 -215.90167 -35.070122 14.011529
770.51703 -215.08221 -34.905914 12.66
743.19885 -214.28639 -34.607399 12.912033
743.82501 -213.94739 -35.115482 13.168208
745.45685 -214.19395 -34.929893 11.840974
747.1308 -213.77478 -35.181072 11.434484
748.08282 -213.83972 -35.056652 13.000026
749.15491 -213.94415 -34.914146 12.578382
750.47198 -213.84479 -34.843838 11.013162
751.73895 -214.09265 -34.920948 8.924984
752.46643 -214.18335 -34.876068 9.2349195
753.80695 -214.58167 -35.458313 7.7948265
767.21075 -214.68674 -34.411621 5.96
768.42596 -214.02898 -35.255695 9.9855108
769.62305 -214.49284 -35.124096 13.978738
770.55664 -214.34377 -35.126328 10.167397
744.22351 -213.46704 -35.353172 14.43454
745.22797 -213.00716 -34.700191 13.599164
746.41571 -212.80208 -34.777645 14.034644
747.92572 -212.59016 -35.11507 11.809999
748.79639 -212.54381 -34.969921 12.270379
750.54407 -212.69543 -34.893982 11.699091
768.42432 -212.72803 -34.608475 7.8699999
769.20868 -212.99791 -34.712982 12.661506
770.73181 -212.97928 -35.066574 13.601839
772.0564 -212.99837 -35.247375 9.7233706
773.151 -213.34758 -34.504761 5.4299998
747.57697 -211.55463 -34.341908 10.71
769.26587 -211.13455 -34.457161 5.5799999
770.65118 -211.51913 -35.04554 14.916313
772.00452 -211.914 -34.845482 11.674896
727.83594 -210.30434 -34.392059 7.5599999
746.33069 -209.85423 -35.393013 7.8899999
769.79163 -210.25552 -34.431438 7.9200001
770.62964 -210.68155 -34.345295 8.5200005
742.93726 -208.8286 -35.353188 8.6356144
744.00336 -209.10065 -35.429905 8.5614548
745.32928 -208.97981 -35.516171 8.1323919
741.65698 -207.54349 -35.264648 8.4885645
742.74835 -207.73383 -35.361721 8.5856209
744.06152 -207.58774 -35.535332 9.3240185
744.94861 -207.61427 -35.563797 8.8703117
753.01697 -207.41905 -35.216228 13.0425
771.86182 -207.60672 -34.605843 9.8292503
725.03027 -206.03912 -34.558716 7.3400002
726.17188 -205.96204 -34.988564 8.6669426
727.43176 -207.01834 -34.508644 9.7781487
728.60773 -206.45135 -35.288391 7.0900002
737.80255 -206.06097 -34.670738 8.2791004
739.58356 -206.48773 -35.106941 8.1138268
740.46741 -206.83344 -35.146896 8.6502037
741.48145 -206.48639 -35.174381 8.717062
743.10193 -206.85538 -35.180115 9.4825106
743.74768 -206.33253 -35.298042 8.9684095
770.78857 -206.67247 -34.681694 10.790965
725.60413 -205.66187 -35.287483 9.9798222
725.71625 -205.74554 -35.200397 9.0118141
727.59747 -205.54262 -34.800781 9.454915
728.95288 -205.20786 -35.017132 7.54
729.69031 -205.41513 -34.688202 6.0599999
738.06976 -204.8459 -34.514809 8.9630718
738.61053 -205.30817 -34.596146 8.942872
740.3772 -205.53571 -34.938919 8.7852726
741.72931 -205.16257 -35.167332 8.1028662
742.46802 -205.31212 -35.302231 8.0964832
744.19452 -205.68806 -35.19693 8.0574999
744.99768 -204.9166 -35.264526 8.4799995
754.01758 -205.09026 -34.663525 12.45
769.86249 -205.66978 -34.838829 8.3199997
725.30255 -204.35762 -34.841461 12.571187
726.39044 -203.91093 -35.144245 8.2833338
728.07886 -204.01521 -35.338852 13.85
728.29138 -203.74402 -34.767498 15.04
737.20502 -203.78474 -34.581867 9.9384794
738.60168 -203.62979 -34.571815 9.1442184
739.94556 -204.18449 -34.580421 9.2701912
741.58105 -203.81783 -35.102642 7.9400001
742.85895 -203.82387 -35.25843 7.6128287
776.40381 -203.68549 -35.279488 10.139876
776.60663 -203.81287 -35.034542 13.15903
723.8645 -203.30603 -35.150558 11.494537
724.53052 -203.14497 -34.905418 9.1569824
726.20917 -202.78673 -35.002178 9.8968639
727.75256 -203.21909 -35.262074 12.970001
736.35999 -202.54886 -34.561371 8.7321243
737.44086 -202.48355 -34.651531 8.6300001
747.79126 -202.10168 -35.252228 8.9600029
775.6297 -202.6615 -34.55394 10.534378
777.07831 -202.60213 -35.045929 14.368237
777.78906 -202.70392 -34.635002 9.3058472
722.63147 -200.96306 -34.43763 8.29
723.45673 -201.49409 -35.108845 9.1614809
725.13788 -201.05051 -34.384083 11.03
725.9541 -201.41618 -34.723782 9.1925001
735.03735 -201.03116 -34.485649 9.612112
735.81763 -201.6093 -34.401371 9.501668
745.85986 -201.76715 -34.395309 7.5500002
747.06342 -201.05531 -34.347946 9.2722178
748.05322 -201.25439 -35.098274 12.386562
748.78998 -201.44829 -34.785648 9.3063326
750.24945 -201.42484 -34.93185 10.756988
722.22687 -199.55 -34.581364 9.1500006
723.17047 -200.40193 -35.019913 9.0262032
724.90546 -199.99091 -34.751011 10.7
734.08813 -199.66957 -34.342918 9.5482426
735.10254 -200.69073 -34.404331 8.647747
740.79724 -199.78851 -34.497402 9.2113457
742.93585 -200.33516 -35.074566 9.1340151
745.10059 -200.21161 -35.175911 11.128647
746.23157 -200.53214 -34.687447 10.364653
748.81812 -200.39819 -34.49279 9.0200005
779.23315 -200.16467 -35.385841 11.370016
724.05273 -198.5706 -34.682743 7.6149998
740.35907 -198.41635 -34.652615 10.470757
741.34491 -199.26968 -34.759209 10.519197
742.61676 -198.71408 -34.521858 12.449417
743.97308 -199.5033 -34.42231 9.546195
778.50262 -199.44855 -34.930439 9.04
779.76245 -199.40295 -34.972504 10.335
739.22449 -197.76279 -34.355923 9.5799999
739.89471 -197.32495 -34.44944 9.5941973
741.6264 -197.50682 -34.338696 10.250396
742.86597 -197.15359 -35.060707 10.51
781.08069 -197.30408 -35.190483 7.6683331
782.15637 -197.77689 -35.028168 10.681499
738.16382 -195.78857 -34.368935 7.7099996
738.81982 -196.53781 -34.49678 11.137294
740.50031 -196.36601 -34.317478 8.7535076
746.28217 -195.98283 -34.387432 9.6049995
784.44641 -195.89136 -34.581879 10.82
737.72919 -195.2166 -34.424801 9.8102579
739.20496 -194.97186 -34.494377 7.5999999
754.36194 -194.6051 -34.530743 7.96
782.16248 -194.63176 -34.772579 6.3600001
783.38 -195.33711 -34.698551 9.059453
753.98767 -193.64305 -34.871552 7.7433333
751.90088 -192.12524 -35.131721 7.3800001
752.62854 -192.64026 -35.088207 8.2643747
754.26379 -192.96234 -35.215412 6.42625
712.75342 -183.03664 -35.378113 11.128873
713.46271 -183.41278 -35.304035 12.672315
712.26074 -182.27388 -34.954762 11.614635
711.16528 -181.17322 -35.57946 10.45
711.69177 -181.51297 -35.060402 10.371111
726.28687 -178.83844 -34.42421 10.48
722.66461 -174.8472 -35.298248 11
723.17352 -174.95923 -35.156075 17.91
707.80432 -173.82928 -34.576176 12.69
723.78058 -173.7226 -34.794769 14.992501
724.53302 -173.12157 -35.223167 14.83
722.13855 -172.19299 -35.474113 10.349176
694.22363 -153.78131 -34.879803 17.555
144.76738 -90.473114 -34.704659 8.0699997
21.257538 170.91898 -35.10601 5.7399998
919.97168 -372.81381 -33.585266 7.8800001
920.81958 -373.18375 -33.537807 7.3400002
921.05554 -371.67328 -33.649658 7.8800001
921.98114 -371.52139 -33.3297 7.5200005
921.97412 -370.89468 -33.5928 7.79
924.85822 -368.97583 -33.963894 7.5399995
854.74316 -359.68909 -33.329235 9.5349998
853.80829 -359.23529 -33.357872 6.7399998
854.90692 -358.45956 -33.574169 9.123333
855.96143 -358.63712 -33.767345 9.5575933
854.92474 -357.61615 -33.691803 7.3199997
855.41565 -357.52838 -33.77713 8.5910072
857.96094 -357.39172 -33.583042 8.7600002
859.65051 -357.3089 -33.867832 17.25
856.23242 -356.60751 -33.551647 8.0507107
857.47583 -356.75198 -33.586884 11.345
858.82605 -356.25287 -34.300564 9.3999996
859.52716 -356.79361 -33.688141 18.6
860.82239 -356.9277 -33.712021 15.96
855.98566 -355.78018 -34.108864 5.5900002
864.07666 -347.24579 -33.804581 6.8800001
864.63464 -346.98114 -33.435074 7.0900002
863.22021 -346.22766 -33.664341 8.6091661
864.70129 -346.77655 -33.506416 7.5124998
865.69495 -346.15442 -33.88588 6.96
863.883 -345.51608 -33.700287 9.0388899
864.39618 -344.94284 -33.855473 9.3976974
865.60693 -345.17789 -33.930077 7.4883337
867.43268 -344.57568 -33.84362 7.04
864.72961 -344.27866 -33.883259 10.47
866.99976 -343.72369 -33.777431 7.4749999
866.35559 -343.03445 -33.312996 10.47
866.77313 -342.71262 -34.118 10.47
788.37054 -315.30661 -33.930183 9.7600002
787.69019 -314.47504 -33.632858 9.0600004
767.47656 -305.02271 -34.051937 9.3100004
767.9234 -305.09448 -34.232475 9.3100004
767.43188 -304.16333 -34.079376 8.8500004
767.88855 -304.23773 -34.230675 8.8500004
816.94153 -298.78107 -33.33942 8.5100002
806.68701 -295.14252 -33.712204 13.89
824.49622 -295.0285 -33.335411 7.3651009
806.44153 -294.2713 -33.885422 9.75
823.98206 -294.17871 -33.488426 6.5250616
825.43036 -294.5181 -33.774532 7.5817356
824.48596 -293.23871 -33.45129 7.46
800.23877 -291.16119 -33.184532 8.4500179
802.96973 -291.19385 -33.639778 6.6900001
799.98938 -290.82166 -33.313168 8.0025005
801.19568 -290.3642 -34.052666 8.2399998
802.35706 -290.48572 -34.045036 8.1375008
796.47913 -287.64719 -34.006367 9.4700003
796.97198 -287.82513 -34.047668 7.9700003
796.9693 -275.80127 -33.67009 7.0122223
796.07086 -275.02631 -33.873539 7.3784051
796.89575 -275.13373 -33.383553 7.0299997
795.91473 -274.26825 -33.637756 6.8500004
778.25256 -270.9899 -34.219841 7.98
769.38458 -264.79794 -34.073223 7.6254802
768.80145 -263.66568 -34.125351 9.9073477
769.63629 -263.5058 -33.477001 8.39925
770.63818 -264.14514 -33.836441 8.1400003
779.98956 -263.5177 -33.594261 10.082916
780.77386 -263.69025 -33.367172 11.15
781.76544 -263.22665 -33.800888 11.149999
768.29761 -262.4491 -33.531818 7.67133
780.56409 -262.87335 -33.314178 9.1800003
783.63055 -262.46814 -34.021156 8.3800001
766.07422 -260.95978 -33.73761 6.9299998
766.60022 -260.82782 -33.864346 6.9339647
782.41821 -260.67981 -34.083328 6.5149999
783.60229 -261.31448 -34.215591 6.45328
784.5578 -260.52832 -33.742596 9.9667482
785.69238 -261.22342 -33.667583 9.5651522
766.77435 -259.5972 -33.658421 8.8450003
784.74017 -260.10535 -33.531937 11.552758
786.01465 -259.75525 -33.708031 9.79
759.4032 -258.07263 -33.452732 7.3299999
760.47357 -258.44879 -33.647537 9.4300003
766.09863 -259.06818 -33.663918 10.54
785.48846 -259.07495 -33.698692 7.8099999
760.48071 -257.68628 -34.09745 7.855
775.61041 -252.01225 -34.009098 9.0733337
773.22382 -246.98607 -33.229366 8.9543066
772.39038 -245.30716 -33.96875 10.28
773.86401 -245.63724 -33.625656 7.8000002
764.55841 -244.45526 -33.416519 9.7987547
765.58966 -244.87476 -33.88559 8.793992
771.52441 -244.64342 -33.363995 6.1218567
773.43518 -244.53545 -33.621925 7.5799999
780.15289 -244.61163 -34.161686 6.4699998
780.66852 -244.17963 -34.236732 6.4699998
789.62878 -244.63666 -34.044342 7.7493162
764.46332 -243.27167 -33.636208 7.9892755
771.30585 -243.48688 -33.642227 7.692071
772.11749 -243.3846 -34.056606 9.2571487
773.06274 -243.24878 -33.644409 7.8441672
779.64795 -243.91248 -34.083687 6.5500002
789.59546 -243.06113 -34.171234 6.9724998
789.56726 -242.68393 -34.280251 7.0599999
745.35602 -240.18875 -33.747604 7.6599998
746.95605 -241.05225 -33.067463 7.5500002
789.38885 -240.7662 -34.240425 8.7600002
743.22247 -239.04691 -33.60276 6.4481249
744.19727 -239.2115 -33.42836 10.320098
745.02112 -240.10065 -33.414936 7.6599998
746.44623 -239.77005 -33.377075 7.1100001
788.69812 -240.00238 -34.17017 6.6199999
743.30426 -238.40707 -33.357265 9.751276
776.86108 -238.06612 -33.730854 6.8299999
742.77155 -237.59674 -33.27396 6.939919
769.78278 -237.18657 -34.046734 8.0083323
776.11877 -236.90994 -33.706848 6.9801388
777.10413 -237.13969 -33.815247 7.7970829
768.54193 -235.2867 -33.651707 11.031253
769.41199 -235.69254 -34.101162 9.4749508
777.27747 -236.1449 -33.978584 8.0199995
768.41833 -234.7934 -33.73114 9.1659784
769.90637 -234.84697 -33.908253 10.485625
767.49377 -233.62396 -34.26672 6.8699999
768.25537 -233.37102 -33.825146 7.3083172
769.25299 -233.20042 -33.473579 6.3066669
767.96765 -231.78104 -33.437752 5.98
742.83807 -230.50685 -33.853901 4.8299999
767.08191 -231.03374 -33.937073 9.0050001
767.77881 -230.31046 -33.317829 6.1056232
768.83917 -230.61606 -33.389332 7.8099999
742.0202 -229.43915 -33.684372 4.8299999
742.77783 -229.33685 -33.766548 6.04
750.32147 -229.31842 -33.844833 6.6525002
766.68677 -229.39612 -33.60537 11.924127
767.95361 -229.48508 -33.397163 9.4558983
741.59082 -228.00455 -33.547859 6.0824995
742.33032 -228.39108 -33.298019 9.2600002
749.74438 -228.53061 -33.737015 7.04
750.52875 -227.74423 -33.354958 8.2744656
765.92755 -227.82117 -33.288471 9.7782164
767.54919 -227.65405 -33.12645 8.6800003
767.65558 -227.54178 -33.557457 8.6800003
741.08966 -226.88602 -33.338734 8.1099997
750.0094 -226.79027 -33.321098 5.6599998
752.64966 -226.27454 -33.137535 6.9233365
764.73566 -227.11275 -33.529018 8.1449995
765.59283 -226.79404 -33.785309 11.017657
766.73413 -226.78764 -34.137051 9.2347736
767.90784 -226.85806 -34.255638 7.3299999
777.38672 -226.69855 -34.090611 10.328374
753.17542 -225.96722 -33.392483 6.1500001
755.2597 -225.58525 -33.34985 5.6742325
766.27466 -225.71939 -33.740532 11.572422
766.63403 -225.0253 -34.199669 8.3247051
777.08582 -225.91759 -34.195122 11.82
745.18762 -224.07809 -33.248535 10.912443
755.53442 -224.63818 -33.268131 5.4499998
765.96973 -224.35332 -34.040298 9.3999996
766.90527 -224.19093 -34.05592 9.6043568
767.5683 -224.64616 -34.247341 8.0799999
771.9032 -224.46109 -33.424294 10.633736
773.27728 -224.10114 -33.487038 9.2299995
750.92883 -222.86981 -34.166569 10.893194
767.12415 -223.0668 -33.805931 8.4566669
767.58911 -222.4623 -33.539543 6.4406252
772.58325 -223.60214 -33.463024 10.47
775.85382 -222.91451 -33.657318 7.9433331
740.17633 -221.90329 -33.224854 10.974844
741.11237 -221.55827 -33.667439 11.57
748.04834 -221.1339 -33.704285 10.171226
751.6167 -222.04254 -33.961033 9.69028
767.36133 -221.97142 -33.487499 10.345876
769.84998 -221.30011 -33.412861 9.4297638
770.362 -221.64401 -34.103638 9.6149998
773.62067 -222.09607 -34.086624 9.1533508
775.27747 -222.25343 -33.398018 10.013056
739.94678 -220.52165 -34.206604 11.7
741.2984 -220.73161 -33.536667 9.8496418
746.91675 -220.82617 -33.42337 10.831975
748.33594 -220.13885 -33.397392 10.651169
749.03925 -220.38344 -33.539917 11.503021
750.51355 -220.59995 -33.541645 9.623415
753.16693 -220.38335 -33.349815 10.444849
767.4906 -220.83817 -33.854927 16.08993
768.00195 -220.26558 -33.573956 12.606685
769.98108 -220.85431 -33.608604 7.8499999
739.84778 -219.08792 -33.644203 10.82
740.99695 -219.66254 -33.326553 12.43
744.5542 -219.74892 -33.242691 11.616391
745.97095 -218.86392 -33.483891 10.01
748.0553 -219.76794 -33.746758 9.6899996
749.06909 -219.73431 -33.797958 12.42573
750.37183 -219.24272 -33.37355 11.05163
751.8056 -218.97647 -33.252972 9.4629841
752.87378 -219.22003 -33.850548 9.5767822
755.53168 -218.79102 -34.205894 13.02997
756.83972 -219.03418 -33.619041 8.3199997
767.19873 -218.9408 -33.586452 17.266066
768.17426 -219.48116 -33.750359 11.739595
740.85608 -217.4639 -33.343311 11.295
740.99744 -218.29968 -33.547821 10.41
745.00696 -217.94585 -33.625984 9.9702091
746.39014 -218.32063 -33.388294 10.916408
751.48798 -218.18025 -33.635574 10.66488
753.15363 -217.90726 -33.594742 11.081825
753.77521 -218.23936 -33.993 9.2799997
755.86542 -217.70604 -33.861958 14.110696
756.48126 -218.48982 -33.28215 12.704432
766.64117 -217.73932 -34.011536 9.5500002
768.37866 -217.34142 -33.927063 17.317053
740.16156 -216.36815 -33.135147 12.64
742.83527 -216.13339 -33.551003 10.049376
744.17175 -217.04384 -33.628586 11.509941
745.53058 -216.77934 -33.815533 10.127593
746.81812 -217.29126 -33.48465 10.161511
755.15771 -216.94662 -33.739044 14.77
767.48596 -216.67123 -33.706837 10.14
768.46405 -216.65584 -34.020908 14.690989
769.47955 -216.32162 -33.438766 12.762321
770.1687 -216.93689 -33.876419 9.8621874
735.41602 -214.78688 -33.495533 15.6
742.11182 -215.23758 -34.14183 9.1398888
742.64502 -215.19954 -33.526096 9.3466978
744.16217 -215.25883 -33.691006 10.683056
745.09009 -215.35748 -33.600754 7.9136219
746.33032 -214.98143 -34.096001 9.5637341
747.61926 -215.09293 -33.396435 5.79
767.30566 -215.2157 -33.71595 8.6791296
768.35577 -215.31203 -33.395054 10.936225
770.12073 -215.31253 -33.796677 10.174999
735.05396 -214.10536 -33.493164 14.860001
741.90094 -214.7471 -34.09066 14.28
742.91449 -214.43091 -33.695663 10.121864
744.01221 -214.39886 -33.652267 13.738684
745.53595 -214.26068 -33.558697 11.706012
746.70435 -213.84738 -34.152393 14.22765
747.97266 -213.87236 -33.651489 11.47003
749.08667 -213.78433 -33.486439 10.810658
750.95203 -214.18916 -34.229839 10.31
751.71265 -213.84943 -34.203632 12.51
767.42737 -213.71367 -33.290928 5.5677938
768.4917 -214.46936 -33.500607 10.264689
770.01733 -214.2662 -34.219948 10.199368
770.6687 -214.42892 -34.226578 12.42
734.33295 -212.64615 -33.406155 7.54
734.69232 -213.42563 -33.48436 14.12
742.55444 -213.19763 -33.585548 5.8000002
744.05731 -213.42799 -33.697098 11.846502
745.2204 -213.06599 -33.702709 10.442344
746.79352 -213.01692 -33.919285 13.654849
747.5553 -212.8447 -33.889038 11.211034
749.1416 -212.86221 -34.2057 11.069823
750.36426 -212.34702 -34.231167 7.730073
768.32898 -212.70651 -33.575954 10.801882
769.32098 -212.87349 -33.473152 13.081891
770.78516 -212.61479 -33.759197 12.043236
747.48273 -211.58983 -34.279549 10.71
750.44562 -212.19862 -33.716793 8.7399979
768.3927 -211.68826 -33.425514 11.345289
770.69421 -211.40546 -33.971771 12.576147
772.0083 -211.91966 -33.995399 9.676693
727.78949 -210.34741 -33.707417 7.727716
769.50507 -210.22221 -33.543499 5.6369629
770.99042 -210.29413 -33.289356 10.447392
771.69385 -210.46176 -33.262611 9.9089565
733.99219 -208.80998 -33.414986 6.6549997
770.56934 -209.45068 -33.675957 6.3762159
771.57031 -209.22411 -33.669846 8.5
725.62805 -207.14009 -34.308186 8.8000002
730.16943 -208.34941 -33.066662 8.7299995
771.97681 -207.63992 -33.701656 9.9962502
724.77307 -206.59631 -33.397724 16.857668
725.89648 -206.60222 -33.762058 11.026007
727.70593 -206.84473 -33.56065 9.2137604
728.20197 -206.91646 -33.248737 7.8899999
737.51318 -206.13155 -33.815651 8.9741421
741.64337 -206.38162 -34.162827 8.2346039
742.34271 -206.11018 -34.155491 10.015166
770.71088 -206.64833 -33.828289 10.806127
724.1095 -204.80043 -34.083145 18.42
724.63892 -205.05942 -33.237743 18.799919
726.28577 -205.50732 -33.337849 10.005578
727.63892 -204.74956 -33.751862 9.9300003
729.6864 -205.4705 -34.194885 6.0599999
736.7702 -205.62672 -33.487099 8.4049997
738.02405 -205.10593 -33.404541 9.4496765
738.62659 -205.14742 -33.852325 9.2640657
740.09149 -205.44978 -34.164249 8.9771776
754.24713 -204.83688 -34.268063 14.01
769.93884 -205.64931 -33.867718 8.3199997
723.99054 -203.42493 -34.087494 8.7651558
725.04889 -204.2878 -33.624638 12.085763
726.52051 -203.96588 -34.164169 8.7636595
728.07318 -203.63039 -33.625317 9.0800009
728.71051 -203.77534 -33.669193 13.483111
736.66022 -203.71281 -33.120655 8.9564304
737.48901 -204.05913 -33.897385 10.106895
739.07178 -203.86555 -34.019253 8.3251114
778.05908 -203.42252 -34.145378 9.4228458
724.22205 -202.25305 -33.671494 11.26
724.59961 -203.14203 -34.191277 9.1599998
726.21637 -202.55894 -33.65448 12.074997
732.73303 -202.75449 -33.056736 12.23
735.18494 -203.19693 -33.990849 9.29
736.31335 -202.7395 -33.773773 9.6053514
737.61102 -202.65964 -33.607777 12.336423
745.53601 -202.10524 -33.118256 14.38
750.39062 -202.11029 -33.475357 20.129999
775.63245 -202.54498 -33.543049 10.504117
777.01843 -202.85503 -33.692425 13.745459
777.92651 -202.81294 -33.322021 7.6771097
722.84558 -201.19629 -33.358093 8.29
723.75464 -201.60072 -33.827499 9.575675
725.32379 -200.91629 -33.623516 10.8425
725.91907 -201.14194 -33.551296 10.400175
735.35693 -201.41988 -33.592407 8.716198
736.04919 -201.58369 -33.856724 10.354494
745.92456 -201.4856 -34.036259 12.110203
746.56042 -200.92691 -33.754543 10.04375
748.33484 -201.6248 -33.448223 14.967018
748.50372 -201.71906 -33.505371 17.6
750.31732 -201.64197 -33.747738 15.784302
755.88458 -201.23323 -33.450497 15.501991
722.51068 -199.86696 -33.51965 9.9434347
723.73755 -200.57388 -34.142174 9.1789379
725.15985 -200.10298 -33.653027 10.688748
734.07715 -200.28261 -33.628788 14.071316
734.99976 -200.25359 -33.901493 9.918026
741.22449 -199.87418 -33.808262 11.626554
742.84808 -199.94647 -34.174465 9.7399998
745.32056 -200.21568 -33.851673 9.678751
746.44312 -200.14197 -33.443005 12.93198
724.14197 -198.64545 -33.979389 7.6700006
724.43195 -198.97194 -33.111465 7.8301697
730.29333 -198.73854 -33.314571 13.24
734.28796 -199.04825 -33.508278 8.2833138
735.53577 -199.29065 -33.838249 9.8850002
736.05298 -198.52194 -33.974659 10.11
740.23547 -198.49261 -33.804779 10.085857
741.75208 -198.97502 -33.650555 11.288165
742.81201 -198.63446 -33.717339 17.153526
743.85034 -199.40567 -34.251396 14.17283
723.52832 -197.48758 -33.315582 10.46
733.03363 -197.1281 -33.825169 8.5999994
733.78552 -197.14331 -33.791771 8.1099997
740.02399 -197.23622 -34.117741 9.4819098
741.38794 -197.37233 -33.512833 13.635888
781.14581 -197.29657 -33.818714 7.9944396
782.32129 -197.85014 -33.73465 11.744073
734.98859 -196.07399 -33.992828 7.8950005
738.23621 -195.92181 -33.519409 12.573583
738.73663 -196.75906 -34.124397 10.042448
740.33539 -196.36606 -33.439056 12.224579
746.37335 -196.2003 -33.681656 10.91391
781.20154 -196.66051 -33.290062 9.1899996
784.49481 -195.93817 -33.383846 10.82
737.71625 -194.92421 -33.709286 8.6613007
739.68463 -195.43855 -33.525627 9.203269
750.40991 -195.48039 -33.441608 7.7649999
754.4104 -194.74347 -33.84938 7.9600005
782.22571 -194.59662 -33.660244 6.3600001
783.25702 -195.07954 -33.743977 9.9394207
733.08362 -194.39102 -33.68338 7.5599999
736.56433 -193.44923 -33.56366 10.149649
737.84998 -193.66994 -33.321533 10.724311
738.5907 -193.72452 -33.297913 9.3631067
753.54333 -193.3819 -33.157253 8.71
754.05341 -193.83582 -33.722904 7.9700298
716.62598 -193.07304 -33.870144 8.835
732.96729 -192.62222 -33.547264 7.5524998
735.24609 -192.86746 -33.438911 8.5371094
735.88116 -192.46259 -33.733776 8.2877655
737.72388 -192.51625 -33.46957 8.7187967
752.0094 -192.18732 -34.03714 7.3800001
752.7063 -192.65105 -34.083172 8.25
754.50867 -193.15263 -33.581261 6.0999999
731.67627 -191.57707 -33.267372 9.0119505
735.22363 -191.56281 -33.411964 9.7145405
737.0448 -191.50543 -33.300011 10.693213
737.12946 -191.76567 -33.300941 9.9732876
734.22906 -190.3632 -33.267189 9.3683567
735.21863 -190.47661 -33.361179 9.6832294
733.11292 -189.06119 -33.172707 10.736767
733.72333 -189.26625 -33.277283 8.4675007
733.20886 -187.04543 -33.311855 8.4799995
733.31354 -187.06706 -33.346607 9.2133331
732.50195 -185.58505 -33.30246 9.7200003
726.57977 -179.04224 -33.772099 11.32
726.97266 -178.47488 -33.4146 9.96
723.05542 -175.46722 -33.749275 14.290039
723.1485 -175.49785 -33.755611 12.759711
707.87317 -173.60867 -33.890656 10.36
741.0625 -163.03609 -33.260971 8.2799997
697.3941 -158.83861 -33.580124 10.94
694.72644 -154.17737 -34.020012 14.541377
695.27472 -153.92729 -34.021458 18.119999
695.01288 -153.76579 -34.30291 9.5149994
144.40376 -90.462936 -33.714767 5.96
145.17232 -90.932251 -33.635994 10.18
629.71503 -61.57095 -33.428581 5.2799869
630.37732 -61.982307 -33.751007 6.0799999
919.73877 -373.00394 -32.558884 7.8800001
920.68829 -373.03638 -32.310539 7.4120002
920.61084 -372.06018 -32.749088 7.8800001
921.40448 -371.29868 -32.826031 7.8800001
924.19177 -369.9136 -32.135536 7.44875
923.53772 -369.30878 -31.993614 7.8800001
924.19922 -369.15073 -32.600986 7.1599998
852.95813 -360.45093 -32.569397 8.0550003
853.97119 -358.60092 -31.868814 7.3666663
854.89197 -358.95477 -32.31852 8.6678314
855.47546 -358.81183 -32.263336 9.2651386
854.4989 -357.73703 -32.230762 6.7675362
855.90283 -357.54294 -32.196518 7.5677862
856.71094 -357.82452 -32.945499 10.36875
860.38422 -357.17297 -32.563358 15.96
855.00427 -356.99878 -32.205482 6.2199998
855.70245 -356.68015 -32.378281 6.5992832
859.51483 -356.72409 -32.636772 18.518438
860.57385 -357.01822 -32.62891 15.96
858.96338 -355.71109 -32.554794 12.31
863.2442 -347.3826 -32.694572 6.7249999
864.75854 -347.06152 -32.427624 7.7199998
863.38361 -346.22379 -32.677685 7.967917
864.62817 -346.20135 -32.645229 7.1378384
865.83765 -345.95233 -32.118877 7.8600001
864.11377 -344.80646 -31.983131 10.47
864.47852 -344.88419 -32.202301 9.416111
866.1955 -345.07272 -32.284966 7.276
864.84271 -344.21753 -32.785538 10.47
866.17151 -343.82974 -32.725948 8.8972921
866.80225 -343.79254 -32.862907 7.25
787.84229 -315.36383 -32.759407 9.7600002
787.65839 -314.43817 -32.875534 9.0600004
816.95758 -298.87744 -32.760395 5.9812498
816.55957 -298.49033 -32.86409 8.5100002
824.32288 -295.26953 -32.332359 7.6269808
825.04199 -295.44611 -32.366772 9.0555086
823.76172 -294.13232 -32.482754 6.9112449
825.20508 -293.96664 -32.374626 6.5670004
824.46094 -293.24478 -32.553902 7.1924076
799.18713 -291.13782 -32.847855 7.7800002
799.72546 -291.80878 -32.882645 8.6700001
799.92682 -290.5022 -32.236897 7.7800002
801.12891 -290.3244 -32.412556 8.1016665
802.73993 -290.66794 -32.553604 7.9037499
797.71484 -277.2294 -32.71167 7.52
796.10327 -276.35239 -32.076733 7.1856141
798.04193 -276.9826 -31.943804 7.02
798.11261 -276.98575 -32.674408 7.0014815
794.71002 -274.98471 -32.02375 6.4800329
796.13135 -275.38266 -32.700848 8.3274984
797.03052 -275.39008 -32.859718 7.1506252
795.85632 -274.31122 -32.325974 7.0205994
777.33154 -269.42053 -31.932287 11.959892
777.34503 -269.08057 -31.993317 13.209835
777.86896 -269.24442 -32.232449 14.47
782.10754 -263.4917 -32.043655 10.96
766.56964 -262.26486 -31.943607 6.4699998
781.48877 -262.87552 -31.915855 11.09
781.82465 -262.76562 -31.831314 11.068333
784.04242 -261.80493 -32.797314 12.065631
784.60431 -262.22293 -32.537884 11.320312
785.36224 -262.3472 -31.930676 9.8999996
766.05554 -260.85474 -32.784859 8.96
766.71027 -261.28409 -32.351837 6.8091187
768.75916 -260.71124 -32.367485 5.3699999
769.73865 -260.82684 -32.103786 6.8299999
770.23438 -261.53668 -32.322033 7.0500002
783.53662 -260.88068 -32.177437 11.943898
785.05847 -261.26227 -32.289368 9.0062981
785.71295 -260.91562 -32.3423 8.8254843
759.31885 -259.27679 -32.995346 9.4300003
764.99841 -259.43307 -32.777298 10.416018
765.66187 -259.98453 -32.942318 8.8711958
766.54871 -259.73071 -32.778328 10.259584
768.33948 -259.95856 -32.35664 5.9299998
782.9342 -260.1633 -32.409081 11.67
784.77814 -259.89954 -32.2616 9.4143343
785.86652 -259.76965 -32.40617 9.7684374
759.29315 -258.63452 -32.400932 8.1700001
760.11255 -258.72577 -32.979195 9.4300003
765.83142 -259.14349 -32.575027 10.54
784.50763 -259.08273 -32.237976 6.9858336
785.48212 -259.04584 -32.842648 7.8099999
759.78784 -257.92169 -32.826832 7.3299999
777.32312 -252.28827 -32.372543 5.5700002
777.87158 -251.80415 -32.923317 5.5700002
777.14484 -251.37329 -32.646469 5.0599999
756.25385 -249.99956 -32.338539 6.73
758.41077 -248.45247 -31.84108 5.5700002
758.75903 -248.20352 -32.166687 5.5700002
758.35132 -247.44466 -31.959187 5.79
758.68298 -247.72992 -32.227985 5.6800003
772.22656 -246.90248 -32.379501 8.04
772.6449 -246.82889 -31.974281 8.9799881
790.28369 -246.75214 -32.598545 7.96
773.38135 -245.67143 -32.287754 7.7232642
774.83826 -246.52945 -32.479992 9.6393747
789.98236 -245.81705 -32.640659 8.1700001
790.8576 -246.11218 -32.455059 7.96
764.44208 -244.36996 -32.381912 9.0614309
765.48071 -245.12352 -32.287231 9.7628527
771.22192 -244.2513 -31.882568 7.5399518
771.96173 -244.65797 -32.299828 8.1693745
773.3147 -244.75687 -32.20787 8.0435772
789.77209 -244.76222 -32.518379 6.5851564
790.49146 -245.19186 -32.148674 8.1700001
764.30054 -243.2664 -32.346695 9.081027
772.1272 -243.09061 -32.722466 8.1119099
773.20312 -243.35173 -32.315258 8.0369234
745.37988 -242.59349 -32.16185 8.04
749.58154 -241.89357 -32.172466 7.8601193
750.34326 -242.53535 -32.376648 7.0250869
771.71008 -242.51953 -31.922466 6.0128174
745.71808 -240.73584 -32.323109 8.4700003
746.68427 -240.78075 -32.22794 7.9404578
748.01648 -240.84457 -32.161888 9.1868343
748.61768 -240.54575 -32.546082 8.8000002
743.30121 -239.47433 -32.438313 6.3299999
744.16772 -239.28922 -32.530766 7.8594117
746.1864 -239.6532 -32.252594 8.049489
747.52911 -239.94177 -32.225868 7.8303471
738.69922 -237.6651 -32.542725 7.2600002
740.41357 -237.83015 -32.122829 6.794179
741.8493 -238.25253 -32.322292 7.2948165
742.9566 -238.23921 -32.216682 8.6140079
744.64325 -238.36162 -32.025234 7.4581385
744.71533 -238.43063 -32.412498 7.8206172
775.85181 -238.25862 -32.813919 6.6149998
776.65704 -238.07045 -32.603767 6.8250299
734.19446 -236.92822 -32.278419 8.9034939
734.6275 -236.79385 -32.467896 8.6619606
738.95862 -237.56973 -31.911211 6.1099997
740.02814 -237.00923 -32.156979 8.0759287
742.27881 -236.83218 -32.147659 7.7796879
776.19128 -237.16452 -32.801308 5.9985647
776.86804 -236.97101 -32.678947 8.7691994
768.6615 -235.80832 -32.719959 8.1550007
769.62604 -235.65512 -33.014244 8.0100002
768.55334 -234.19815 -32.879333 8.4731045
769.39697 -234.78764 -32.323772 9.4066668
768.23297 -233.23616 -32.576015 7.686717
769.7207 -233.80692 -32.818871 8.0600004
767.83289 -231.37 -32.200634 8.1933336
766.15576 -230.58282 -32.728851 11.718472
766.84973 -230.8403 -32.398853 8.4030552
768.17792 -230.75073 -32.591156 7.3421531
750.39062 -229.3456 -32.65881 5.6100001
766.94171 -228.93478 -33.026695 12.758011
767.87476 -230.0105 -32.120476 9.7799997
741.76428 -227.49069 -32.928429 10.41
749.38995 -228.12131 -32.460941 6.1099062
750.25195 -228.65494 -32.121918 6.6800003
751.45258 -227.99376 -32.809662 6.3460364
766.1936 -228.15015 -31.956749 10.960625
766.60645 -227.90108 -32.182785 9.6220827
740.96802 -226.43484 -32.805149 10.41
750.76196 -227.10442 -32.629105 5.891562
752.31116 -226.27594 -32.802303 7.3270473
754.77875 -226.32668 -32.370056 9.5699997
766.62494 -227.358 -32.547588 9.8737507
747.72168 -225.49536 -32.106586 7.3395658
751.96637 -225.50449 -32.475838 5.3045216
753.09692 -225.21893 -32.905777 4.7600002
754.25275 -225.53758 -32.369755 9.4990129
765.95856 -225.28488 -32.609924 17.16
766.93817 -225.71999 -32.670193 10.113334
754.05115 -224.74048 -32.354694 11.47
772.32617 -223.80582 -32.544052 10.860001
773.12122 -224.21594 -32.33149 9.2299995
767.32111 -222.68436 -32.960976 7.1100001
772.88446 -223.06004 -32.306404 9.7862501
774.08502 -222.7215 -32.664814 13.310001
775.85339 -222.97351 -32.486237 7.6699996
725.58374 -221.22327 -31.932507 6.836875
740.49677 -222.04344 -32.641113 10.09
743.28912 -221.92667 -32.673637 8.5600004
744.09833 -221.45012 -32.424011 7.5422478
745.28131 -221.88054 -32.146862 8.3078728
747.88818 -221.14793 -32.282715 10.116664
765.09058 -222.04015 -32.227402 7.46
769.57483 -221.45999 -32.184277 11.4
773.48303 -222.00964 -32.622032 15.213377
774.56628 -221.88925 -32.169655 12.837123
775.34888 -222.31027 -32.606586 10.139364
723.0647 -220.88748 -32.03125 6.4200001
723.74274 -220.05899 -32.335476 6.1100001
740.32092 -220.2677 -32.315136 9.7716713
741.79474 -220.02811 -32.46682 8.3088951
743.31018 -220.26126 -31.880573 9.0010262
743.6709 -220.61432 -32.641327 8.2650099
744.96143 -220.02107 -32.317719 9.1350002
746.67657 -220.88112 -32.704212 8.7963152
748.1778 -220.26822 -32.328423 10.724533
749.29437 -220.49701 -32.300507 10.266845
750.45667 -220.02231 -32.426044 10.720974
766.81274 -219.93225 -32.676159 9.5400152
768.63208 -220.17609 -32.479347 7.4526992
769.52502 -220.19972 -32.086937 6.3499999
723.97528 -218.95332 -31.78553 9.8166666
724.35718 -218.99173 -32.372284 8.04
739.83392 -219.13266 -32.548927 10.82
741.19647 -219.65356 -32.527187 12.629531
744.3053 -219.65236 -32.345528 8.1870689
