# .PCD v0.7 - Point Cloud Data file format
VERSION 0.7
FIELDS x y z intensity
SIZE 4 4 4 4
TYPE F F F F
COUNT 1 1 1 1
WIDTH 1292
HEIGHT 1
VIEWPOINT 0 0 0 1 0 0 0
POINTS 1292
DATA ascii
16.690615 10.050735 4.6558895 14.9
17.328161 9.9636383 4.6323681 7.3000002
18.099686 10.035031 4.7821188 6
20.13834 9.9240904 4.5729332 39.200001
23.379608 9.9906063 4.5956779 9.6000004
23.494303 9.9989185 4.7131062 9.6000004
42.5882 10.057058 4.6478958 12.2
15.360129 10.168945 4.6988201 18.700001
15.813129 10.213897 4.640481 12.1
16.17437 10.169639 4.5861778 8.8999996
17.074146 10.27859 4.6681423 12.65
17.764774 10.210497 4.6457314 17.375
17.928644 10.266993 4.6568651 19.950001
18.801443 10.317857 4.7213793 6
18.960823 10.113936 4.6251373 11.9
20.158522 10.303759 4.5570168 16.5
20.309734 10.202724 4.6318817 18.85
20.504858 10.285961 4.6541643 13.1
23.924408 10.148548 4.7410693 12.200001
24.702932 10.290277 4.5495033 33.599998
33.158733 10.166168 4.7237282 7.5999999
37.589977 10.199411 4.7278471 9.6999998
39.725674 10.222137 4.5549936 7.5
15.610073 10.41313 4.7348485 17.5
17.314812 10.431484 4.6148767 11.583334
17.597435 10.542191 4.699708 13.1
17.873611 10.411427 4.6797185 12
18.03968 10.481459 4.7195349 14.858334
19.77397 10.418461 4.5943475 11.5
20.385696 10.402884 4.6662922 12.25
21.990889 10.525257 4.758707 10.3
22.336765 10.504271 4.6595454 21.700001
22.46579 10.48541 4.6962242 6.5
23.313871 10.391813 4.7147484 9.1000004
24.652439 10.358116 4.6904979 13.4
16.233627 10.743265 4.6736631 13.950001
16.424318 10.640058 4.6965561 10.2
17.357288 10.711172 4.6397781 8.8000002
17.508675 10.750371 4.6147451 19.35
17.935556 10.716536 4.6437931 9.9250002
18.216248 10.727543 4.7545595 13.7
20.646942 10.789762 4.6347575 19.700001
20.844742 10.745342 4.7292328 23.25
23.146858 10.68633 4.6345625 23.6
23.784805 10.698719 4.7168131 13.4
29.002285 10.749205 4.5873752 10.1
42.114128 10.750376 4.7471156 10.5
16.108715 11.037871 4.6987262 19
16.298334 11.043633 4.5885258 18.049999
16.761723 10.984424 4.6173091 8.8000002
17.222754 10.969054 4.6346049 10.4
17.47901 10.936875 4.6947756 8.1999998
17.864868 10.929629 4.6663184 9
18.338207 10.882591 4.7680736 10.7
18.793592 10.960384 4.6814103 16.200001
18.987789 11.076445 4.6631422 15.5
19.756487 11.030401 4.7525582 9.1999998
20.192003 10.902399 4.7083344 23.200001
20.740149 10.890197 4.6127901 21.200001
21.081257 10.911158 4.6800222 14.374999
21.213394 11.03344 4.7850151 25.1
22.431499 10.844019 4.665885 27.9
23.71859 11.009385 4.6115255 16.200001
43.070656 10.968458 4.6499081 9.3999996
58.688393 10.906301 4.6280327 9.3000002
17.295605 11.137248 4.6893559 12.5
19.356457 11.285381 4.6930127 11.9
20.475229 11.270074 4.5487227 8.6999998
21.055496 11.225145 4.7197361 16.258333
21.338432 11.205435 4.6999102 22.950001
21.491529 11.104822 4.7374187 19
27.986795 11.287617 4.5580177 22.700001
30.367517 11.252525 4.7420483 6.0999999
36.424534 11.184218 4.6398478 26.9
16.281429 11.437524 4.5690165 11.3
16.433853 11.586189 4.5379076 6.1999998
16.714327 11.515821 4.758635 21
16.964294 11.577322 4.7431297 9.25
19.511467 11.374292 4.6592107 23.35
20.090967 11.570944 4.6205788 10.4
21.40661 11.505173 4.7082758 6.9000001
21.673998 11.563278 4.6578336 17
21.833508 11.357885 4.6408272 23.3125
35.107681 11.510035 4.5581307 17
36.392227 11.458832 4.7040043 17.6
14.963575 11.773165 4.668324 9.8500004
16.734861 11.719759 4.6274695 20.549999
16.930651 11.723683 4.7345543 6.8000002
19.616344 11.773714 4.602488 8.5500002
19.940105 11.828846 4.5453582 10.025
20.240189 11.833876 4.5805979 17.299999
21.808067 11.801293 4.5616422 8.9499998
22.000357 11.651276 4.6501474 9.6999998
22.301697 11.814671 4.6647921 12.3375
28.269844 11.611639 4.7879043 26.1
29.322765 11.617048 4.651475 10.4
34.873661 11.697754 4.7800989 30.1
37.334923 11.703185 4.7497749 9.3999996
16.968142 11.863318 4.6266394 11.3
19.851452 11.914574 4.6232452 18.35
20.157736 11.919877 4.7245312 20.650002
21.936346 11.968268 4.7471352 9.6000004
22.314018 12.039653 4.6029549 10.491667
22.522137 12.077982 4.7299824 18.025
22.843239 11.930586 4.6590681 12.9
33.791 11.924488 4.5678043 12
34.506981 11.889116 4.6099396 8.6000004
15.667311 12.146204 4.7505884 11.5
16.994621 12.253403 4.7341156 17.4
17.656992 12.337333 4.6741829 24.9
19.469906 12.277104 4.55931 8.3999996
20.469654 12.102388 4.6772304 22.35
21.219204 12.180704 4.6304607 17.799999
21.433001 12.248115 4.737927 12.9
21.888071 12.143899 4.733922 8.3999996
22.36882 12.279827 4.5655575 13.6
22.54154 12.110889 4.5691338 11.3
23.237173 12.331896 4.7552309 14.849999
25.409729 12.12825 4.6209507 9.3999996
25.462549 12.256003 4.6229258 22.6
27.980251 12.341328 4.7363391 27.4
33.424526 12.278518 4.6321726 25.200001
33.637356 12.133707 4.6713877 28.700001
34.205193 12.339509 4.7323718 8.5
16.639351 12.589447 4.7271223 13.8
17.033955 12.452195 4.6379957 13.995834
17.444765 12.479055 4.6232381 10.725
17.686071 12.469429 4.6401334 20.35
17.971336 12.584808 4.7598228 14.1
20.608103 12.364326 4.5743837 22.4
20.71203 12.419045 4.6226163 28.299999
20.952587 12.545626 4.7177587 20.200001
22.179676 12.601868 4.720561 9.3999996
23.103443 12.475367 4.7560325 17.200001
23.786345 12.574137 4.6521845 12.9
24.205456 12.433741 4.6483645 14.6
25.16423 12.497147 4.7702923 18.200001
28.590309 12.460821 4.5924463 7.6999998
29.368671 12.366426 4.7668228 26.1
17.093723 12.699158 4.5450764 12.099999
17.506374 12.702433 4.6597819 15.5
17.726204 12.76677 4.6917472 9.8666668
21.117029 12.818899 4.6585112 15.950001
21.210735 12.619352 4.6167154 7.6999998
22.447805 12.725574 4.779593 10.8
24.085787 12.604303 4.5577807 6.1999998
28.233589 12.849284 4.6555624 7.5999999
30.51804 12.694187 4.7434473 9.6999998
31.385387 12.674987 4.6464272 6.5
16.883369 12.907027 4.5757251 14.4
17.081869 12.909535 4.6159267 9.3000002
17.439186 12.904909 4.6117764 13.174999
17.921093 12.988136 4.6024971 7.5
21.486217 12.935537 4.7575407 14.7
21.763845 13.072012 4.6942911 14.35
22.128283 12.866932 4.625339 12.8
22.820009 13.008236 4.7186394 7.5
23.213974 12.909419 4.5938907 12
23.810232 12.948294 4.7565408 11.8
24.113245 12.930742 4.7567334 13.6
24.347519 12.962493 4.7861929 19.5
24.603735 13.020138 4.7057519 8.5
25.249702 12.905319 4.5541239 8.1000004
26.703548 13.044417 4.7457428 25.799999
28.98443 13.01801 4.641161 10.4
29.912703 13.014524 4.6998191 9.1000004
35.31266 12.919949 4.7647142 16.200001
17.025309 13.316473 4.5719295 18
17.350021 13.315081 4.6527214 21.25
17.756073 13.190181 4.7331119 8.9333334
18.407808 13.19186 4.6203752 22.299999
20.113182 13.176987 4.7291875 17.799999
21.607073 13.246109 4.7041149 20.4
22.549408 13.264763 4.700048 14.950001
23.463877 13.283314 4.5999026 14.7
24.565241 13.282581 4.6366224 15.95
25.084717 13.301807 4.5852795 25.1
25.352116 13.345911 4.7693715 18.299999
25.502922 13.315596 4.7564583 12.25
25.911879 13.26044 4.7290316 25.5
26.086025 13.17547 4.7414331 14.7
27.882891 13.202167 4.5860004 10.8
28.652662 13.1953 4.6538272 27.5
30.3381 13.276664 4.6912522 8.8000002
17.542524 13.431562 4.6154771 10.6
18.643703 13.430442 4.6463761 10.7
20.566338 13.42912 4.6998162 26.6
21.771961 13.410005 4.6040134 10.4
22.012676 13.515722 4.6313715 11.2
23.133287 13.478933 4.5404253 13.4
23.324434 13.402969 4.7590795 21.9
23.462166 13.371655 4.6690588 19.049999
24.114695 13.531664 4.7295833 20.200001
24.257563 13.492412 4.7083707 15.6
24.517387 13.498758 4.5572815 11.6
25.268623 13.406408 4.6953993 7.5
25.678751 13.57758 4.650115 17.700001
26.130737 13.391043 4.7357473 9.5
28.346912 13.497093 4.6036186 7.8000002
29.584349 13.596091 4.6945605 8.8999996
16.444641 13.762948 4.6239986 7
17.535107 13.656376 4.7137051 8.8999996
20.289637 13.796787 4.5842805 9.1999998
21.577465 13.784625 4.7082591 13
23.174046 13.670539 4.6986895 9.3000002
24.028299 13.779912 4.5493746 13.3
24.341564 13.836011 4.6624084 23.700001
24.583412 13.666462 4.7420263 11.533333
24.810326 13.783251 4.6673985 13.8
24.990747 13.819736 4.7093515 15.75
25.22621 13.719505 4.7604342 13.9
25.792702 13.662179 4.7465386 11.3
26.570999 13.828745 4.6259298 8.6999998
28.421185 13.793981 4.6027985 7.5
30.000319 13.641318 4.735239 8.3000002
30.815531 13.825463 4.7139158 6.9000001
31.983995 13.779758 4.5526247 14.549999
32.40736 13.698593 4.6299472 22.5
34.224789 13.650256 4.6495619 8.8999996
35.046986 13.762023 4.7414989 9.1000004
18.114952 13.917822 4.6912041 18.9
18.371538 14.02298 4.6311288 20.1
18.490932 14.075512 4.6702056 12.8
18.678791 14.101404 4.704628 17.200001
20.867256 14.031452 4.5868216 7.9000001
21.580711 13.897199 4.7741132 8.1000004
21.895721 14.013885 4.7162328 12.6
22.200853 14.051972 4.6838655 21.6
23.128883 14.114506 4.7253103 14.700001
23.632982 14.107231 4.6076136 8.8000002
23.815216 13.926158 4.7259073 16.099998
24.083706 14.011056 4.6602287 13.7
24.227989 14.019992 4.6814928 12.066667
24.469366 14.089761 4.6970797 8.5333338
25.565353 14.051341 4.6222296 9
26.083004 14.038973 4.7126379 11.25
28.339626 14.061644 4.7214141 8.6999998
18.52055 14.235481 4.7172441 14.95
18.719378 14.345299 4.6906157 13.3
19.757984 14.117437 4.6808915 20.799999
21.417503 14.119327 4.6012363 16.1
23.803593 14.246943 4.7344666 16.75
24.462685 14.312031 4.5523653 12.099999
24.850977 14.314087 4.6204681 14.9
26.325584 14.226634 4.6138034 10.7
29.016012 14.360128 4.7585435 6.3000002
32.3186 14.295159 4.7641129 14.95
18.967407 14.578396 4.6541338 16.4
19.175163 14.476995 4.7465906 27
22.006027 14.458638 4.7148237 11.55
22.629732 14.565352 4.7105489 11.6
23.628252 14.579015 4.6912169 11.2
24.271587 14.526374 4.7729263 9.3000002
25.803059 14.425688 4.6277633 7.6999998
27.181427 14.527143 4.5385122 6.5999999
27.834812 14.531588 4.6382055 9.8000002
18.017801 14.823298 4.6599536 14.8
18.68058 14.643615 4.6906581 9.0499992
19.194967 14.682398 4.7583036 14.3
19.816122 14.673567 4.7825556 10.5
20.145203 14.642553 4.5615335 22
23.321453 14.68783 4.5447145 23.5
23.445381 14.799147 4.760416 20.700001
27.82929 14.636016 4.5844817 34.799999
32.089546 14.861306 4.6097798 9.3999996
34.176483 14.627171 4.7457933 18.299999
18.026409 15.087984 4.7694521 9.3999996
24.319796 14.963752 4.5450101 16.9
24.5156 15.069564 4.7034998 20.700001
27.077866 14.916546 4.7727814 9.1999998
28.515623 14.965924 4.5858707 9.6000004
18.06596 15.225595 4.5475397 6.5
19.784239 15.24836 4.7014294 9
23.08514 15.299815 4.595921 25.700001
26.198881 15.353395 4.6217141 11.6
27.430119 15.250964 4.6089296 6.6999998
27.807493 15.285307 4.7016859 14.4
21.989954 15.420313 4.7817192 7.8000002
26.364716 15.465684 4.6790161 11.716667
27.111801 15.549625 4.6642971 6.0999999
22.572927 15.663893 4.6866446 7.5999999
25.179239 15.866008 4.7881265 22.9
26.748798 15.735986 4.7595611 8.3999996
21.129009 16.335119 4.6166019 9.8000002
22.094606 16.216227 4.6246095 7.6999998
22.391647 16.323799 4.6230998 29.700001
22.798101 16.194611 4.7759609 11.4
25.091631 16.160023 4.7437425 8.5
25.275082 16.191656 4.7197628 13.9
21.656536 16.429403 4.5799246 20.9
21.917868 16.571266 4.659153 20.700001
22.268606 16.611937 4.6526012 9.6499996
24.036531 16.617832 4.7655387 9.5
25.04044 16.501518 4.5856404 22.4
26.827724 16.500927 4.6750469 14
21.695717 16.800356 4.7319393 18
29.31826 16.861015 4.6827269 8.2000008
21.051414 16.982141 4.5492053 12.1
21.444447 17.069853 4.6742024 16.9
21.929781 16.89637 4.6510396 26.933334
23.570564 16.983309 4.7465715 23.1
29.442963 16.987455 4.646739 6.1999998
20.701218 17.337578 4.6190791 27.6
23.615446 17.52589 4.6631074 11.1
24.249346 17.432621 4.575717 11.1
26.051411 17.557995 4.7413483 22.4
23.091606 17.791819 4.6821275 15.175
23.689041 17.834423 4.6564908 24.35
23.517792 18.113277 4.6018786 10.3
25.444759 17.966612 4.7062826 12.5
27.03574 17.945854 4.6316671 25.200001
23.076172 18.253948 4.7711296 9.0500002
22.917089 18.514248 4.756691 10.1
22.736242 18.741049 4.7720289 7.5
23.59193 18.887917 4.5940514 10.1
23.32518 19.272112 4.6973801 8.6000004
22.572117 19.52286 4.7384968 18.1
21.658543 19.744251 4.6424971 10.5
22.531284 19.744696 4.7335601 12.35
23.174652 19.819321 4.7344341 30.700001
21.069513 20.017382 4.5531492 6.6999998
22.12508 20.04776 4.699316 11.6
22.520401 20.441174 4.7363567 10.3
22.127325 21.222427 4.7568593 8.6999998
18.045998 21.648685 4.6354108 18.9
22.096634 21.531406 4.7669134 8.6000004
22.747908 23.555357 4.6695347 16.799999
54.158661 -20.713676 5.0062513 10.4
45.815289 -20.019794 4.8102522 9.8000002
45.360283 -19.172293 4.9263363 8.6999998
53.833473 -19.218895 5.0110445 17.799999
70.005905 -17.671051 4.81531 7.6999998
50.245701 -17.109306 4.9048939 8.6000004
66.163658 -16.532026 5.0228672 7.5
66.518776 -16.61972 4.966599 20.700001
53.289112 -15.94559 4.9895649 9.3000002
67.094818 -15.90111 4.9141722 14.8
70.633095 -16.070234 4.8700747 10.1
42.34116 -14.609108 4.8167353 9.1000004
55.65974 -14.290546 4.870059 8.6999998
64.212898 -14.065024 5.0381517 10.6
55.740204 -13.735917 5.005188 6.8000002
70.71981 -13.788595 4.9853506 7.6999998
72.335831 -13.144827 4.8172979 11.8
66.351608 -12.578976 4.8841476 9.6999998
66.547615 -12.589471 5.0048876 17.4
54.994171 -12.163555 4.9360733 15
66.08477 -12.135387 4.8284397 9.5
13.754845 -11.989612 4.9496098 11.7
70.378128 -10.15735 4.9464011 10.9
15.551191 -9.6036396 5.0396929 12.1
15.858195 -9.6442814 4.977664 7.0999999
72.954941 -9.0997524 5.0116529 22
70.064903 -9.0332699 5.0175714 7.3000002
70.682274 -9.0414143 4.9421654 8.6999998
17.445557 -8.1201267 4.8442802 21
14.992631 -7.661006 4.9066782 7.0999999
14.42806 -7.1483965 4.8983068 20.6
78.937614 -6.1865253 4.8847098 21.200001
16.132603 -5.856617 4.8585434 23.6
16.444628 -6.0212364 4.9044394 10
21.377308 -6.0167341 4.8587222 13.2
21.596146 -5.9110594 5.0170126 12.7
17.099096 -5.6393929 4.906641 6.8000002
19.158207 -5.5701723 4.796556 7.0999999
20.170963 -5.7246418 4.8722878 9
16.248034 -5.4251523 5.0084128 10.6
66.922646 -5.3095646 4.9401817 11.8
71.291763 -5.3881335 4.9354978 10.3
74.444008 -5.4341927 4.864275 9.1000004
6.5557556 -5.0434046 4.8435888 7.0999999
19.194311 -5.2429819 4.9246569 9.3000002
20.009514 -5.1688108 4.836123 16.9
20.08326 -4.919013 4.9176245 12.1
16.042706 -4.7880158 4.9954033 7.1999998
16.718143 -4.7188663 4.851059 7.9000001
16.186573 -4.3640676 5.0241961 12.8
18.623384 -4.4003139 4.9200983 22.799999
16.391579 -4.2265673 4.8216372 13.6
16.907904 -3.9811819 4.9104347 21.1
16.187298 -3.5106962 4.839169 16.299999
71.106125 -3.2436156 5.0337996 10.9
17.672709 -2.7672231 4.8613234 17.6
12.176384 -2.2897444 4.9236317 6.4000001
14.686569 -2.3374276 4.8261828 9.8999996
8.8594751 -2.0805869 4.8513241 6.6999998
9.8652067 -2.1408162 4.8715301 8.1999998
11.762254 -2.2108934 5.0325875 7.5
14.156616 -2.1959968 4.8334866 13.4
17.054459 -2.1299059 4.8747706 16.1
17.778431 -2.042891 4.969501 22.049999
8.4075394 -1.805905 4.8294086 17
14.490017 -1.9259855 4.9364929 9.3999996
14.511745 -1.5460399 4.9645095 9.1000004
16.367737 -1.7412707 4.8959942 12.2
17.169241 -1.7202042 4.8771658 15.6
13.972917 -1.0180992 4.9327154 7.5999999
14.40543 -1.2576579 5.0117049 8.8000002
11.890897 -0.59785235 4.9435344 12.3
14.93667 -0.74951106 4.823679 34.700001
12.462847 -0.48195577 4.9357128 15.1
12.640381 -0.2807228 4.9613118 12.1
12.978795 -0.26740825 4.954936 34.5
17.340462 -0.37374926 4.933331 18.700001
12.973019 -0.081562579 4.9283171 8.6999998
56.390362 0.45938587 4.8510871 21.6
7.9345183 0.68236095 4.841753 7.8000002
9.2060337 0.63604844 4.8947964 29
12.875056 0.68755287 4.9072361 30.6
16.843199 0.73550242 4.9766397 9.3999996
17.544802 0.53383112 4.9081602 9.6000004
71.208557 0.71798623 4.8572598 11
7.8627925 0.96161604 4.8656912 10
17.314316 0.94101304 4.8292661 10.6
52.425293 0.80659723 5.0074987 28.299999
17.76368 1.356238 5.0108371 10.4
56.384396 1.4823682 4.9213963 8.6000004
59.17411 1.4888787 5.0124083 8.3000002
8.2741976 1.5318547 5.028923 10.6
16.635958 1.7456148 4.8246379 7
17.69001 1.7188362 4.8306456 16.5
20.888248 1.6388965 4.9392591 6.8000002
55.638325 1.7361817 4.8233757 28.799999
16.635792 1.9789 4.9678202 15.2
21.064211 1.9552717 4.8387189 14.7
15.663556 2.2414038 5.0124111 10.9
18.025703 2.0348036 4.862041 10.8
10.121413 2.5155158 4.8213463 7.4000001
15.16478 2.3164058 5.0282841 7.8000002
15.730962 2.4444878 5.0049748 13.3
16.208961 2.4170327 4.9876118 14.6
16.606279 2.4020386 4.9373455 16.6
16.937288 2.4754541 4.9792919 19.1
15.789641 2.6376185 4.9168692 15.2
16.042461 2.568254 4.8179989 33.099998
17.579319 2.7363403 4.9806466 17.475
17.70932 2.6127219 4.875083 9.6000004
25.155819 2.5979972 5.0040293 11.8
60.264397 2.6672711 4.9252715 7.1999998
61.294907 2.6366451 4.8695831 11.5
9.7866955 2.9852519 4.9407415 9.6999998
12.664478 2.8966219 4.874454 17.9
15.809041 2.8172054 4.9627285 13.1
16.30048 2.8672714 4.9701195 15.1
17.642956 2.8350446 4.9476147 7.4000001
17.889641 2.9279046 4.9262838 14.450001
18.022886 2.945653 4.7987509 14.9
16.213434 3.1178589 4.8330288 25.200001
16.497913 3.2161493 4.9014359 14.1
19.074411 3.2059436 4.8900185 16.6
19.739212 3.1258032 4.8914161 12
20.672935 3.1332633 4.8527756 10.1
15.002024 3.5065937 4.8038683 10.6
15.291329 3.3144469 4.9014387 17.85
16.614426 3.3358903 4.8236322 21.450001
16.753906 3.4180858 4.9310989 11.6
17.31246 3.3684878 4.9981451 7.9000001
17.53026 3.3121843 5.0273728 8
19.799126 3.5281849 4.8723698 11.8
20.10429 3.3539405 4.8776183 11.7
53.127541 3.5030987 5.0213881 9.6000004
57.01273 3.44015 4.8647699 32.099998
15.319633 3.6907918 4.8964958 7.8999996
15.496648 3.6640098 4.8897243 25.800001
16.795679 3.631206 4.8271494 6.5999999
18.526867 3.7459066 4.875937 7.25
18.693569 3.6428204 4.9833679 9.1499996
19.037169 3.72416 4.9750013 15.200001
19.743706 3.7395508 4.8413296 8.4499998
20.118877 3.5921445 4.8088923 16.65
15.434095 3.8254867 4.9466829 10.9
17.454702 3.9745598 4.9125853 13.8
18.536861 3.9539199 4.8983445 11.3
18.66193 3.9664347 4.8104234 14.3
19.093489 3.9455492 4.9967637 21.1
19.286491 3.849184 4.9480066 13.7
19.45932 4.0171919 4.837853 11.4
19.834978 4.0279732 5.0322566 13.6
14.97062 4.0483656 5.0272155 10.3
15.156561 4.1562262 4.8323646 20.25
15.40266 4.0555735 4.8581471 8.1000004
18.377117 4.0655584 4.9204817 11.6
18.443436 4.1675396 4.9622712 9.3999996
18.750202 4.0972414 4.7951717 17.6
51.922054 4.1591587 5.0151916 7.0999999
54.055317 4.1503911 4.9864831 10.8
55.098907 4.1300149 4.8296185 8.8000002
14.776924 4.2893872 4.9849234 11.6
15.577065 4.5019283 5.0296264 28.5
18.143642 4.4044504 4.9355693 15.4625
18.324131 4.3933458 4.9309015 14.0375
19.228636 4.4253545 4.8519707 14.566667
20.376741 4.4508834 4.8943405 6.6999998
54.604958 4.5030246 4.9854984 27.200001
54.819927 4.3980441 4.9967146 21.9
15.274425 4.7658463 4.820344 8.8000002
15.57373 4.7368016 4.8783598 10.700001
15.957722 4.7539911 4.8712091 8.8000002
18.240173 4.6818662 4.9872127 9.2750006
18.934002 4.5876904 4.9819059 16.962502
15.257734 4.9740648 4.9045982 22.675001
15.525143 4.8977385 4.8498645 9.6000004
15.786794 4.8821039 4.9466553 13.35
15.968185 4.8737078 5.0096059 7.9000001
16.181293 4.9240713 4.8064227 17.5
18.021606 4.9971848 4.9743214 9.5
18.596224 4.9191852 4.9623003 32.299999
18.799889 4.9213924 4.887341 17.150002
55.048012 4.8598909 4.862555 7.9000001
2.9632263 5.2900901 4.8484812 10.8
15.512413 5.2018142 4.8422022 16.375
16.056902 5.1114092 4.9254284 29.6
18.05415 5.1303749 4.9383745 19.5
18.30718 5.1901674 4.9029193 15.25
48.032246 5.2802558 4.8164368 7.1999998
53.983723 5.0541472 5.0218129 8.3000002
15.463843 5.3880072 5.0324955 11.1
16.031734 5.5017591 4.7995486 21.1
17.836916 5.3807907 4.8542538 19.4
17.966881 5.3110328 5.0095353 9.6999998
18.579437 5.3526163 4.8701248 10.3
18.789463 5.4013824 4.9296713 9.1125002
19.025911 5.4203148 4.8905692 15.566667
58.518616 5.4649439 4.8220916 35.5
15.070562 5.656496 4.8169684 13.2
15.380682 5.7964416 4.9992042 11.4
16.073332 5.7922802 4.8173461 18.75
17.073332 5.7421303 4.9556131 7.3000002
17.336872 5.6877623 4.9191513 9.5500002
18.316227 5.75 4.9440994 13.1
18.692078 5.7725205 4.9485235 11.5
19.019457 5.7028799 4.8734426 18.799999
15.307175 5.8804121 4.8834 6
15.506499 5.9723296 4.9412646 7.9500003
17.156549 5.8108506 4.9227219 19.4
17.576328 6.0240817 4.8961153 13.3
18.062061 5.9334979 4.9769506 12.25
18.580261 5.9425616 4.900651 10.9375
18.869556 5.8771963 4.9179511 9
19.019342 5.9172635 4.8098612 14.799999
15.313046 6.0733957 5.018949 28.1
15.495586 6.1982775 4.8444023 13.200001
15.650067 6.1306934 4.8121996 8.6749992
17.962955 6.0499382 4.8441586 17.75
18.288448 6.149137 4.8964386 12.825
18.507225 6.1983461 4.9082036 10.78125
18.763548 6.1354327 4.9279361 14.652779
19.083698 6.1118841 4.8243895 14.866667
54.38398 6.1438613 4.8541822 7.4000001
55.092606 6.2035499 4.9097004 20.5
1.4592698 6.3505464 4.8712344 11.6
15.676389 6.540616 4.9410405 17.9
17.953884 6.429348 5.0229406 19.9
18.296375 6.5202208 4.889595 23.5
18.510006 6.3970404 4.9290314 9.8500004
18.814093 6.4306679 4.9350233 14.491666
53.331726 6.4810176 4.9915571 22.700001
15.638995 6.7473521 4.8174448 13.333333
16.491308 6.6985502 4.8395863 10.2
17.121153 6.7612543 4.8943367 11.3
17.835045 6.740963 4.9251804 13.9
18.368328 6.6701407 4.9177756 25.5
18.460604 6.6444035 4.8179693 33.5
18.668606 6.6354265 4.9256077 16.65
22.382326 6.734745 4.9656291 11.4
14.893404 7.0241556 4.9671245 13.8
15.270989 6.975512 4.8963413 14
15.518869 6.903965 4.9176598 8.1999998
15.757439 6.8924356 4.9911585 17
16.009216 6.8873625 4.8628268 18.174999
16.215639 6.962709 4.9802513 16.1
17.004562 6.986999 5.0157757 15.7
17.842215 7.0131807 4.8510804 9.8000002
18.45293 6.9651003 4.8995962 10.5
18.819967 6.8943553 4.9266272 16.5375
19.031094 6.9040442 4.9557557 10.25
33.011551 6.9093833 5.0381007 14.2
45.848629 6.9350395 4.8954239 8.6999998
-1.6600493 7.1905026 4.8160715 12.7
15.757613 7.1728568 4.9153752 10.533334
15.893763 7.3009887 4.834909 14.7
16.236164 7.2361994 4.9135618 10.05
16.89526 7.174058 4.8494973 16.1
17.367992 7.1037517 5.0177159 8.8000002
18.525665 7.2592583 4.8925004 9.2666664
18.988691 7.180687 4.8766618 14.105556
19.180981 7.267437 5.0200748 20
50.336601 7.2003083 4.7983856 31.200001
50.601105 7.2993946 4.8593097 26.6
15.715754 7.4989386 4.8539333 7.5
15.890582 7.5397501 4.8467827 7.4000001
18.278072 7.3922172 4.9406581 9.3083334
18.586212 7.4516559 4.9485035 6.9499998
19.076033 7.4493117 4.9165478 8.9333334
19.333981 7.5126977 4.8867388 9.75
21.656729 7.515873 4.9941893 14.8
46.037521 7.4752173 4.8218966 17.200001
54.629875 7.4772639 4.9400826 12.3
15.076761 7.681344 4.8345318 14.3
15.689796 7.6306233 4.8899655 6
15.996376 7.705585 4.9050617 11.875
16.252844 7.7746277 4.9257159 8.3500004
17.86842 7.7163796 5.0403867 6.4000001
18.140627 7.6872683 4.9224834 11.65
18.329666 7.7697859 4.9394188 18.6
18.524525 7.653944 4.8472385 15.275001
18.738417 7.6907616 4.9146438 11.3
19.043186 7.7482166 4.8768477 11.025001
25.712997 7.6386924 5.0315137 15.3
47.623787 7.7137604 4.8108187 7.8000002
16.060268 7.9784756 4.8916001 14.400001
16.449966 7.9215546 4.9530826 10.783333
16.662237 7.9730105 4.8943024 8.8000002
18.034761 7.9336281 4.9584727 19.35
18.192553 7.8204565 4.8327384 22.1
18.438396 7.827075 4.9287338 29.6
18.757978 7.9315777 4.8484921 10.15
22.854996 7.868083 4.8109131 23.700001
42.650154 7.9837046 4.9868927 7.5999999
11.813654 8.1295395 4.8535647 7.4000001
15.437412 8.1765976 4.9308186 15.425
16.056612 8.0903206 5.0165415 25.5
16.290771 8.1772442 4.8599291 9.5
16.462091 8.1020994 4.9278908 7.8000002
16.674572 8.1453686 4.9559908 11.3
17.123838 8.1616077 5.0210619 21
18.021107 8.2015686 4.8944874 9.416667
18.345184 8.2893858 4.9259009 10
18.470963 8.2574158 4.8521128 13.6
19.404581 8.0937872 4.9110861 7.5
20.398695 8.1926899 4.8460798 6.8000002
20.676163 8.1377926 5.0246363 6.9000001
42.231701 8.2161083 4.83497 25.299999
17.066631 8.5490046 5.0392008 9.8999996
17.345425 8.4972115 4.9518323 12.7
17.471846 8.4392595 4.8656716 6.8333335
17.858257 8.3767252 4.9233093 15.4
18.071423 8.3466187 5.0048447 6.5500002
18.523531 8.5482292 4.9028478 9.5083342
18.772635 8.393465 4.8211079 16.950001
21.474689 8.4595451 4.836906 22.200001
44.238106 8.3677139 4.8364382 7.8000002
15.515306 8.7934818 4.8263378 17.299999
15.787682 8.6752625 4.9666295 13.3
16.520779 8.6932831 5.0023336 13.4
16.692198 8.7790747 4.8925052 6.7250004
16.889484 8.7474308 4.9248462 17.4625
17.267281 8.6912212 4.9082026 16.2125
17.50423 8.7130051 4.894475 13.4
18.575077 8.7453537 4.9865494 12.5
18.780735 8.7225628 4.8963947 12.6
19.309303 8.7387543 4.9012303 12.35
19.925989 8.7194901 4.8185644 8.8000002
20.235332 8.6090164 5.0234599 6.9000001
21.593239 8.6499434 4.8220863 19.4
15.381911 9.0273972 4.9110193 12.1
15.74452 8.9895191 4.9048948 13.6
16.026436 9.0234652 5.0408859 12.6
16.377287 8.8516645 4.9370747 14
16.538336 8.9565849 4.9427366 9.3499994
16.75193 8.9461002 4.8465524 16.733335
16.961258 8.9388275 4.8634024 9.5375004
18.747728 8.8788338 4.9369025 17.066666
19.004135 9.0297756 4.9501677 12.238889
20.030054 8.9377193 4.932137 12.900001
29.988651 8.9665451 4.9199967 8.5
-0.95715827 9.1914129 4.9630113 19
13.504955 9.1579809 4.8085012 6.5
15.167574 9.1937752 4.9290419 11.35
15.507721 9.2295561 4.980619 15.5
15.784908 9.2613907 4.9293318 17.174999
15.932859 9.2791653 4.8946733 16.65
16.145382 9.2212219 4.8975325 12.691667
16.523735 9.2089233 4.8912506 16.25
17.573959 9.1984949 4.8663487 15.591667
19.141699 9.2550211 4.9414167 9.1999998
19.313543 9.2435246 4.9239445 7.5749998
19.461819 9.2169428 4.8646483 9.6640625
19.891094 9.2411346 4.8980045 13.450001
20.084892 9.2280121 4.7964516 24.700001
21.603907 9.0827608 4.9805117 11.1
33.469463 9.1400242 5.0260401 10.8
38.362179 9.0970545 4.957233 6.0999999
38.983196 9.3243866 4.9418135 9.5
13.500671 9.5204115 4.9805813 14.2
13.760156 9.4150076 4.9572916 8.1999998
14.204863 9.4655514 4.9265065 13.799999
15.210276 9.5346632 4.825686 17.550001
15.635639 9.3768559 5.0116301 21
17.44355 9.4760151 4.8713846 11.8
17.664843 9.4807863 4.9382553 16.325001
19.063913 9.3744297 4.9148083 11.4125
19.534622 9.4584732 4.8676081 16.144791
19.70915 9.5064878 5.0361481 8.6000004
19.916939 9.5163393 4.9731774 10
21.94956 9.43186 4.8724813 13.650001
24.398607 9.4981508 4.9829865 9.8999996
44.226055 9.4630671 4.7933531 26.700001
16.370468 9.6864834 4.9230623 9.8500004
17.760672 9.7504492 4.9344316 21.1
18.96604 9.642313 5.0298977 9.1000004
19.381033 9.7520037 4.9676857 10.866666
19.856298 9.651576 4.8696084 10.7
20.118025 9.6892567 4.9105034 14.810417
20.37528 9.7741404 4.8972626 16
23.476181 9.6590166 4.9333296 8.8000002
24.032547 9.6686916 4.8637781 12.8
24.673252 9.6401577 4.9511404 8.3999996
26.009304 9.8245201 4.9589581 9.1999998
38.454124 9.687582 5.0168991 9.5
14.892608 10.064329 4.9819026 18.299999
15.848279 10.008307 4.862195 6.9000001
16.312393 9.9225769 4.8461809 9.875
17.069988 9.8806534 4.9176569 12.9
17.28546 10.035175 4.9298892 8.6999998
17.62941 9.8909321 4.8633924 11.75
17.889526 9.8970222 4.9687653 21.475
19.446854 9.9781322 4.9540005 12.7
19.815382 9.9342184 4.8942456 15.366666
20.240616 9.9650412 4.9053254 13.129167
20.546951 9.9587841 4.8742294 12.7
23.966679 9.924427 5.0121946 12.1
43.192417 10.056769 4.7910671 9.8999996
14.660372 10.10973 4.7975559 6.1999998
16.785019 10.162042 4.9976325 15.4
17.235151 10.236398 5.0202427 11.233334
17.520168 10.179785 4.875824 14.950001
17.792212 10.226677 4.9615803 10.475
18.260782 10.184084 4.855525 28.5
19.280157 10.223979 5.0376906 9.8000002
19.44685 10.206721 5.0172086 6.9000001
20.117798 10.140356 4.9229164 18.049999
20.541203 10.16785 4.9055729 18.1
21.47197 10.255098 4.8453517 6
23.091524 10.252168 4.9499826 12.75
24.047913 10.181862 4.9094892 13.6
36.290268 10.326583 4.8244228 10.5
15.142761 10.580832 4.8398714 6.8000002
16.311119 10.377495 5.0053744 7.5
16.874928 10.579184 5.0228443 7.3000002
16.887306 10.530682 4.830524 9.6749992
17.259975 10.479548 4.8994799 10.549999
17.719946 10.455068 4.8748384 20.766666
19.286156 10.584879 4.9373202 11.8
19.831106 10.384779 4.8752871 17.200001
19.964405 10.503718 4.9309788 13.9
20.473925 10.452879 4.9138026 15.825001
20.688847 10.469226 4.8479939 22.375
23.290855 10.450877 4.9457126 13.5
24.044991 10.360587 5.038455 7.4000001
24.359137 10.583384 4.9584942 11.3
29.814077 10.562024 4.8404212 11.3
38.402855 10.583279 4.9189515 7.5999999
16.230463 10.814863 4.9244533 15.5
16.772713 10.746651 4.8751583 12.95
17.253145 10.673587 4.9782133 10.75
17.433304 10.781425 4.9632559 16.549999
17.795246 10.713213 4.8815022 23.799999
20.463257 10.71956 4.8261542 9
20.78249 10.646933 4.8959875 24.9375
21.104431 10.673116 4.8206978 7.9000001
21.209223 10.667951 4.8942113 7.0999999
22.0525 10.684366 5.032063 14.6
23.388313 10.665504 4.9127202 23.700001
23.65369 10.684649 4.8510947 25.6
23.850925 10.737464 5.0185661 16.4
36.99522 10.600209 4.9696293 11.9
42.735874 10.781162 4.9091363 7.4000001
16.49441 10.952372 4.896781 13.924999
17.124092 10.911827 4.9555531 14.4
17.273561 10.920928 4.8240614 14.8
17.58029 10.847915 4.8983469 11.85
17.776148 10.984712 4.9679065 14.433333
18.083319 11.023954 4.9299817 8.5
18.172226 10.90621 4.7962379 10.8
18.504959 10.949023 4.8635473 12.9375
18.704273 11.027256 4.8725924 13.625001
19.342228 10.918774 4.8910661 23.700001
19.450823 10.979848 4.9012723 26.9
20.280418 11.032675 4.8635988 17.5
20.550873 10.933413 4.8307586 23.75
20.702497 11.027329 4.9996076 28.9
21.011856 10.890763 4.819097 9.5
22.250189 10.969484 4.9301224 14.2
33.717888 10.91461 4.8477621 10
43.436245 10.898316 4.9339237 11.6
16.270964 11.337291 4.888196 9.3000002
16.396414 11.166578 4.9221406 18.4
16.974268 11.215469 4.9565735 10.525
17.18358 11.281085 5.0138698 9.8999996
17.515802 11.107437 4.9449701 6.75
18.114155 11.144052 5.0248938 10
18.887915 11.299499 4.8727341 12.8
19.300852 11.191968 4.8382039 10.4
20.304214 11.178092 4.994257 18.033333
20.593956 11.281412 4.9919415 14.599999
20.740765 11.331487 4.8847499 23.200001
21.262222 11.225866 4.9067764 18.975
21.635777 11.180051 4.816309 9.8999996
22.1304 11.330505 4.9496999 8.6999998
36.266155 11.245833 4.9452839 13.8
38.387379 11.110166 5.0268993 17.299999
15.984501 11.563192 4.8072414 9.3000002
17.017166 11.483617 4.904942 11.933333
19.031715 11.511225 4.9116244 15.325
19.907564 11.412805 4.8533254 24.9
20.182579 11.479359 4.8044081 10.8
20.929195 11.508912 5.0272174 11.3
21.534424 11.405411 4.8953662 31.35
21.800745 11.465324 4.927701 17.025002
30.037157 11.532198 4.8439894 15.1
34.932148 11.528125 4.9702082 12.5
35.611118 11.39583 5.0076814 16.9
36.484932 11.392328 4.8447552 20.799999
36.746483 11.350138 4.9474516 18.299999
16.167448 11.732935 4.9337745 14.6
16.974464 11.651719 4.8272233 9
18.775414 11.636919 5.0253797 7.6999998
19.042973 11.723136 4.9206996 10.083333
19.249676 11.746342 4.9627056 14.8
20.46806 11.737521 5.0177937 6.5
21.843624 11.627604 4.8679285 12.1
22.153708 11.69676 4.8386049 11.1
22.805981 11.708896 4.8985491 7.0999999
27.491009 11.725731 4.8842087 11.2
28.763399 11.685286 5.027739 8.1999998
30.308079 11.601407 4.9344411 9.8000002
37.727215 11.755162 4.8680773 22.6
15.675818 11.984441 4.9204988 15.2
19.039463 11.878635 4.8820715 12
19.330204 11.854919 5.0085115 13.7
20.332426 11.875686 4.8880863 14
20.479282 11.955643 4.9293313 10.4
21.246252 12.045116 4.9348741 14.1
21.525398 12.029398 4.9116602 7.6999998
22.441114 11.939632 4.9206858 11.5
23.066778 12.034376 4.9433537 19.299999
32.630066 11.890852 4.9300442 8.1000004
35.114586 12.011352 4.8473492 29.799999
36.990948 11.918024 4.8055964 6.9000001
15.612306 12.220952 4.9708624 7.5
17.246119 12.293896 4.8500147 17.4
17.696291 12.302174 5.0064235 6.6999998
19.580912 12.284934 4.9538598 15.2
19.971247 12.134377 5.0078235 14
20.40733 12.308842 4.8314724 17.25
20.44775 12.152488 4.8995261 8
20.716011 12.135986 4.9851108 7.0999999
21.197889 12.14768 5.0242028 15.4
22.510529 12.113773 4.8808336 17.5875
22.708088 12.175275 4.926868 23.799999
23.17662 12.259177 4.9366937 9.916667
23.327858 12.229473 4.993257 17.875
23.559929 12.249983 4.9270582 14.725
33.627174 12.317392 4.8895431 25.299999
16.741636 12.421646 4.8475151 8.1999998
17.270218 12.529266 4.9074292 10.3
17.538797 12.508402 4.8953338 13.787499
17.94524 12.466642 4.8761816 8.8500004
19.644602 12.421449 4.9231224 16.150002
19.969259 12.49652 4.8689933 18
21.440983 12.583472 4.8260798 10.3
23.370926 12.448825 4.8729534 22.533333
23.524696 12.420077 5.0367718 16.4
23.720331 12.585299 4.9634285 7.9000001
23.964527 12.433361 4.9212518 10
25.576296 12.523362 4.8901315 15.633334
26.04397 12.425434 4.8540668 21.299999
27.232407 12.455618 5.039372 15.8
27.541239 12.39994 5.0097866 25.299999
29.572136 12.543437 5.0134053 14.7
30.439383 12.590981 4.9891768 14
31.219643 12.592814 4.8347373 29.799999
16.864115 12.690805 4.8317013 13.299999
17.046591 12.723427 4.9707284 10.7
17.379044 12.653 4.8802342 13
17.943258 12.791763 4.8980236 7.6999998
18.256981 12.736465 4.9303408 8.2999992
20.041046 12.663486 4.9071198 12.480555
21.00905 12.723396 4.9085884 27.549999
22.364859 12.771667 4.8785453 12.2
25.656626 12.704102 4.9095178 8.6999998
29.654125 12.743574 4.9430389 7.8000002
29.944305 12.747915 4.855041 7.2166667
36.736496 12.803424 4.8633766 7.5
17.599224 12.91715 4.8878813 11.4
17.664509 13.104214 5.0234814 14.1
18.084164 13.043073 4.970315 15.2
18.21286 13.024346 4.9052105 23.6
18.949774 13.063291 4.8110285 10.1
20.021852 12.865433 4.8167276 8.3000002
20.238079 12.962688 4.9059563 9.375
20.705292 13.096252 5.0308728 19.933334
21.597752 12.905111 4.9038687 9.9499998
21.866259 12.892494 4.9907198 20.700001
22.802299 13.019726 5.0016551 23.9
25.164478 13.088258 4.8185053 7.6999998
26.594086 13.048017 4.8351812 6.1999998
29.623882 13.033918 4.8808279 12.5
30.135414 13.003891 4.8638058 22.799999
30.852549 12.870528 4.8142157 16.5
17.461597 13.266857 4.9119501 10.5
18.063955 13.301924 4.8476524 7.4000001
18.329857 13.314363 5.0060124 7.0999999
19.193237 13.129879 4.8409519 11
20.543558 13.208336 4.9774995 8.5749998
20.733511 13.274273 4.9867921 11.2
21.830883 13.171117 4.9166231 22.299999
23.74687 13.297505 4.8302836 20.200001
24.227011 13.35343 5.0289249 15.1
24.631948 13.34056 4.9967155 16.6
25.010313 13.259805 4.8846555 13.6
25.454105 13.119017 4.9025874 22.5
25.46311 13.343782 4.8450375 8.1999998
25.731155 13.352469 4.8751364 22.150002
26.002668 13.210056 4.8590522 15.7
26.704426 13.316453 5.0358458 17.5
26.735683 13.253485 4.8865051 16.700001
28.335779 13.132009 4.9712062 6.9000001
29.566113 13.192823 4.9057894 8.8000002
29.830303 13.20852 4.9063621 23.700001
18.162798 13.416292 4.9558697 12.3
21.09277 13.447714 5.0062361 10.05
21.483658 13.506423 4.827045 11
21.78661 13.400805 4.9763775 14.25
23.843178 13.458632 5.0402913 17.799999
25.453232 13.53933 5.0231991 7.9000001
26.698627 13.521814 5.0266171 16.5
26.907248 13.449991 5.0001197 8.5
27.110394 13.410649 5.024087 9.8999996
27.750704 13.515256 4.9747667 16.4
30.116558 13.392759 4.8634682 7.5999999
36.06995 13.518579 4.8010435 8.6999998
17.998659 13.797435 4.9048338 8.6000004
18.281311 13.743387 4.9496655 12.9
18.904379 13.82739 4.9899535 8.8000002
21.248671 13.862592 4.8096776 31.6
23.580437 13.722143 4.8845572 14.7
23.844259 13.732523 4.8331823 11.7
24.080128 13.710611 4.9262209 18.450001
24.354645 13.748818 4.8599176 18.65
24.6542 13.749312 4.8963432 17.799999
24.861349 13.798984 4.8423624 8.1999998
27.603617 13.704544 4.969738 10.9
31.938854 13.779453 4.9710722 6.9000001
32.428879 13.727281 4.9376478 17.200001
34.292248 13.797223 4.9344296 23
18.232317 14.018601 4.9593811 15.950001
18.529629 13.945738 4.9653521 7.8499999
22.50865 14.013394 4.8618741 8
22.727543 14.097176 4.9015064 9.8500004
22.969519 13.993023 4.8828092 7.0999999
23.484856 13.958971 4.9222145 11.15
23.706768 13.913383 4.9289465 18.9
24.063093 14.112613 4.87498 7.4000001
24.314329 13.898294 4.8459716 13.700001
25.163843 14.055793 4.9619241 21.6
25.632538 13.964806 4.9189825 15.6
28.552197 14.112433 5.0158243 8.6999998
28.939352 14.074545 5.0283971 9.6999998
30.353935 13.882174 4.9674292 12
31.241022 14.008698 4.8183622 7.8000002
31.824036 14.114271 4.803997 19.299999
18.074875 14.183336 4.9934859 8.3999996
18.554396 14.18718 4.9227901 13.2
21.578236 14.219444 4.7921901 23.9
22.07793 14.276329 5.0151072 12.75
22.41445 14.27736 4.9307952 15.9
23.133183 14.214207 4.8544073 8.6000004
23.903416 14.241046 4.972909 19.799999
24.069384 14.206516 4.942287 14.1
24.593636 14.213289 4.9260931 11.9375
25.078232 14.317711 4.991168 11.2
29.026176 14.309841 4.855154 8.6000004
30.804506 14.361976 5.0385242 7.8000002
32.469902 14.219958 4.9209795 11.9
34.480846 14.345452 4.8717928 9.8999996
19.005411 14.599364 4.8178072 9.8999996
23.058041 14.472374 4.9572392 10.6
23.547831 14.377218 4.8574066 20.9
23.842026 14.504072 4.7999134 7.8499999
24.209953 14.568089 4.9397397 25.1
24.675362 14.50741 4.9984703 14.4
24.831669 14.471841 5.0276947 15.5
25.085642 14.452388 5.0047169 19.5
26.982624 14.459349 5.0275593 7.6999998
27.66423 14.556307 4.9362788 9.8000002
27.918591 14.479785 4.8970652 15
28.036077 14.584476 4.9529481 6.5
28.923038 14.546171 4.8482714 18.200001
29.372927 14.533983 4.8914528 22.449999
32.452457 14.494374 4.9586892 23.799999
18.645227 14.682386 5.010437 7.9000001
18.743763 14.706068 4.8854837 6.3000002
19.002853 14.770941 4.937026 22.808332
19.455599 14.693581 4.9895854 9.8000002
20.086035 14.64126 5.0170646 24.4
23.080832 14.865278 5.0055151 19
23.470003 14.742023 4.9567947 16.4
23.74328 14.686353 4.800786 15.7
27.334373 14.707788 4.8828931 9.8999996
32.417236 14.633818 4.839426 19.299999
18.363352 14.877205 4.9960299 12.5
19.260237 14.925473 5.0213823 8
19.4701 14.946967 4.8185668 25.6
27.049652 15.107134 4.8105459 13.6
27.302063 15.068218 4.9078374 8.3500004
28.913914 15.014035 5.039268 14.5
31.859159 14.994086 4.9052234 10
18.526621 15.267954 4.8201866 13.6
19.810688 15.356886 4.8981981 16.4
22.257654 15.374338 4.9420424 14.1
23.322824 15.258245 4.928267 13.1
26.2374 15.298426 4.9775233 10
26.635193 15.260393 4.8778439 11.85
26.858419 15.252626 4.8574672 12.15
27.148314 15.154531 5.0398946 8.1999998
27.709743 15.274943 4.8900943 20.15
28.781128 15.154855 4.8286519 7.9000001
34.46299 15.35713 5.0223618 14.6
24.416607 15.46444 4.9914975 12.3
25.279842 15.560187 4.8803444 11.1
26.129934 15.474717 4.8989167 7.7000003
26.297775 15.538837 4.9788337 11.6
26.818544 15.554193 4.836688 9.8500004
23.452574 15.726433 4.9100051 22.700001
25.346098 15.871614 5.0231133 15.6
25.855156 15.66573 4.9574666 10.775
26.351847 15.829903 4.8403792 8.3000002
26.711218 15.654585 4.8683681 11.700001
18.096289 15.954259 4.9465938 11.6
21.584879 16.123697 4.9956536 16.1
23.13777 16.033474 5.0013785 8
23.667057 15.970019 4.8991423 8.8999996
23.852428 15.997699 4.9730363 11.4
25.326685 15.913223 4.9141359 14.9
25.58251 15.964113 4.9939237 8.5
25.767872 15.97474 4.9135156 7.25
23.817938 16.182362 4.9895983 15.8
24.879848 16.238621 4.9199739 12.2625
25.496828 16.37229 4.9105506 16.833334
29.477356 16.353771 4.877285 15.2
19.900806 16.586468 5.0203137 10.6
20.784027 16.567673 4.9222383 8.9499998
20.985592 16.573168 4.9440103 8.4499998
21.456945 16.526995 4.9695301 10.3
22.553436 16.520548 4.8953223 13.15
24.313011 16.549744 4.8805876 17.6625
24.754608 16.398766 5.0352407 9.2333336
25.088707 16.501293 4.9355488 15.400001
29.357456 16.596207 4.7912931 10
21.095346 16.675415 4.8535089 11.1
21.571819 16.876453 4.9917545 9.3000002
21.868103 16.834455 5.0127506 18.799999
22.389374 16.647343 4.9238472 10.6
22.441278 16.763033 4.9800234 9.8999996
24.315012 16.726871 4.8232713 6.9000001
24.930244 16.63735 4.9666796 10.8
29.374825 16.857635 4.8334079 15.3
24.095787 17.007912 4.8669858 10.125
20.743 17.184467 4.8075008 9.8999996
21.274178 17.262913 4.8305874 6.8000002
22.065903 17.247658 5.0121331 12.6
22.515617 17.168066 4.9762888 26
22.768988 17.222889 4.8596473 20.5
23.872946 17.252794 4.9777517 19.933332
24.184948 17.165325 5.0170107 14.475
28.815113 17.362789 4.8607264 8.6999998
29.063461 17.221542 4.8273478 11.9
23.609417 17.531778 5.0136533 12.8
23.418303 17.771828 4.8891044 20
23.811041 17.789499 4.7951474 17.1
25.982994 17.798393 4.8346448 15.3
23.338932 18.016808 4.974123 17.849998
22.289251 18.217705 4.906507 13.5
22.819082 18.309168 4.9360137 17.549999
23.189699 18.198473 4.8514261 13.3
22.564392 18.76832 4.9188886 12.7
21.830336 19.103216 4.7925935 6.5999999
22.518124 19.101616 4.9959917 15.5
22.999245 18.971012 4.8752546 10
22.772339 19.251678 4.9211364 8.875
23.03196 19.258871 4.8972535 8.6000004
23.538654 19.240551 4.9630098 9.6999998
22.159275 19.620142 5.0304117 12.766667
22.475439 19.570951 4.8401747 18.4
22.131573 19.785498 4.9397221 13.049999
22.616804 19.858402 4.862628 17.799999
22.813068 19.861055 4.8551502 15.2
23.204119 19.828186 4.8994784 8.6000004
22.200241 20.147551 4.962213 13.3
21.377975 20.359159 5.0272808 22.4
21.918577 20.205975 4.918817 9.25
21.522369 20.623787 4.7969089 11
22.17511 20.468117 4.8171153 15.2
22.129925 20.818085 4.9887147 10.8
21.55364 21.25182 5.000895 18.700001
22.046928 21.268497 4.9034872 28
22.319424 21.194771 4.8869987 21.4
52.919308 -19.668562 5.224843 16
56.312775 -19.896322 5.2798681 27.799999
54.300007 -19.462982 5.1683388 6.6999998
54.188553 -18.817251 5.0483379 6.8000002
70.170036 -18.249371 5.2099147 12.4
45.084198 -17.517248 5.0791683 9
69.918968 -17.436247 5.2102151 12.9
62.677132 -17.272903 5.2101669 18.299999
66.120964 -16.943083 5.1607251 14.4
49.305592 -16.723902 5.1782103 18.299999
71.351357 -16.72197 5.2732148 14
44.014137 -16.40703 5.2620792 9.6999998
66.203545 -16.363462 5.2031541 8.1000004
66.736168 -16.259169 5.0421853 6.4000001
49.4519 -16.07383 5.1724081 10.4
52.42725 -15.884018 5.1798 7.0999999
71.546394 -15.925477 5.2875071 7.6999998
65.854706 -15.83786 5.1928611 14.1
64.659477 -15.60272 5.1362329 23.299999
67.002754 -14.789762 5.0807943 9.3000002
57.322475 -13.96862 5.1998081 11.6
59.555141 -14.103709 5.1759434 6.5999999
55.788902 -13.436702 5.262536 7
73.270012 -13.167808 5.2797337 10.9
66.143524 -12.023242 5.066648 22.200001
17.092237 -11.456934 5.1406178 10.4
64.279984 -10.147001 5.2729235 7.9000001
71.892014 -10.091002 5.2654452 24.9
70.40416 -9.6354904 5.0468283 10.3
72.752274 -9.7286396 5.2489309 7.5
73.515312 -9.2696905 5.2220392 15.3
66.145706 -8.9843855 5.2310228 11.8
69.208 -9.0177956 5.2619524 18.6
69.197456 -8.3844814 5.184927 8.3000002
16.08474 -7.1527615 5.1666512 22.799999
69.392754 -7.2565942 5.2081027 17.200001
19.096027 -6.2527289 5.2312469 9.6999998
70.256714 -6.1897564 5.256989 9.1000004
66.953667 -5.9488778 5.088273 10.3
69.14299 -5.9586048 5.171236 16.950001
70.129799 -5.8960476 5.0648766 18.799999
22.002594 -5.7590322 5.2317085 11.3
15.714268 -5.5158577 5.0543475 6
20.230335 -5.5306072 5.1100187 11.6
69.318947 -5.4475856 5.111979 10.7
19.023651 -5.1251898 5.0566912 8.6000004
19.975256 -5.1616926 5.2104845 14.2
18.462139 -4.8355885 5.0781312 11.9
16.935726 -4.7642803 5.09619 13.6
15.790961 -4.3957901 5.1617441 9.25
16.350403 -4.4501543 5.0416451 8.5
16.384022 -4.1232958 5.0461359 7.5
17.841866 -4.1469722 5.1972079 35.5
16.142952 -3.7593472 5.1452436 10.1
12.874794 -3.2901974 5.0899153 10.5
18.612835 -3.29266 5.2134533 6.8000002
10.394597 -3.1361217 5.1960449 16
16.229792 -3.1325753 5.239356 7.5999999
60.647125 -2.8582885 5.215878 26.200001
16.982187 -2.7566831 5.1886625 14.2
7.6916332 -2.3164301 5.0981331 7
16.195993 -2.4796646 5.1642976 14.5
19.567974 -2.3808212 5.1784868 23
11.794809 -1.5922519 5.1213861 16
17.646074 -1.650337 5.1446295 13.8
72.842682 -1.5851835 5.0971141 7.4000001
12.299624 -1.2977942 5.1227927 21.299999
16.986237 -1.5096576 5.1386046 11.6
69.66494 -1.1436306 5.088521 28.5
12.67279 -0.98904914 5.0578418 9.6000004
12.74535 -0.58409858 5.1233158 12.5
12.372998 -0.26799113 5.1440468 12.9
58.21767 -0.33679605 5.1643085 7.0999999
12.415636 -0.22886819 5.1197562 8.3999996
12.606993 -0.23784068 5.1643233 8.1000004
5.5952048 0.30269545 5.1277418 25.4
12.333012 0.44024634 5.0466223 23.4
70.919914 0.57999074 5.0685987 7.8000002
12.713107 0.91320455 5.2143087 11.1
17.585701 0.98656178 5.108654 13.9
15.953084 1.228934 5.0860081 7.5
28.519266 1.2247286 5.1921077 28.700001
54.982479 1.049304 5.2479005 7.5999999
59.153389 1.2574248 5.1512012 17.5
5.4660912 1.4377656 5.0515862 6.4000001
17.269751 1.4187458 5.1288958 22.200001
51.089813 2.2480917 5.2157965 12.5
15.425581 2.6688588 5.234139 16.799999
17.68878 2.7569818 5.1622353 14.2
54.875893 2.5830994 5.2520976 9.1000004
12.159328 2.926538 5.1234002 10.2
16.433285 2.9690847 5.2612095 35.799999
16.940287 2.9694879 5.2045784 33.099998
20.147251 2.8983481 5.153553 10.5
56.810246 2.7828419 5.2459741 17.4
58.942345 2.85379 5.2784405 11.4
16.659561 3.0964656 5.04635 9.2999992
16.471771 3.3375378 5.232018 12.2
17.379555 3.393558 5.1967697 9.5
19.89846 3.4206448 5.1166677 19.35
54.218452 3.4874156 5.104198 9.3999996
60.142372 3.3490131 5.2433128 8.8999996
14.955452 3.6863077 5.1423793 11.233334
15.39545 3.7470703 5.0594935 10
16.703646 3.6099091 5.041512 15.1
17.130508 3.572356 5.166079 8.8000002
17.192459 3.6313796 5.2604303 8.3999996
17.644516 3.5851426 5.1509333 26.549999
18.544399 3.724524 5.0535688 10.8
18.73703 3.6764843 5.0749202 18.1
20.088047 3.5501094 5.2596736 7.9000001
53.078907 3.7114747 5.252008 13.3
0.85145628 3.987601 5.1137996 17.799999
7.4405026 3.8794107 5.064218 6.4000001
15.087478 4.0279598 5.1828222 12.8
15.414141 3.959012 5.1896524 28.700001
15.798897 4.0268393 5.2181463 19.75
17.746244 3.9533556 5.1846118 13.4
18.22366 3.9913797 5.1161294 9.8999996
18.439138 3.9415729 5.2174444 14.4
15.491294 4.1958618 5.0648556 9.1000004
18.213787 4.2121201 5.122695 11.425
18.489481 4.0445538 5.0521407 19.5
19.075144 4.0931959 5.1457248 11.525
20.651363 4.0496311 5.1297507 16.5
53.436771 4.1656122 5.0522957 33.200001
60.067184 4.1003547 5.180006 19.700001
18.070309 4.4392796 5.2206392 8.8999996
18.291412 4.4066234 5.1964846 12.834375
19.026007 4.4254332 5.0985527 22
48.996166 4.4299226 5.2620478 7.3000002
15.626316 4.5780926 5.1514192 27
15.838898 4.6485467 5.1449471 18
15.904366 4.5415049 5.0796409 11.3
18.057373 4.62924 5.1669054 17.299999
18.174253 4.6665912 5.207233 19.483334
18.556614 4.6888361 5.2890882 9
52.09977 4.587738 5.194521 26.4
15.691778 4.8956795 5.2728367 10.25
16.823986 4.9428682 5.2548199 12.2
17.134167 4.8885069 5.2867041 10.799999
18.037031 4.9569426 5.1065912 11.9875
18.301785 4.8455935 5.1684828 33.349998
18.549707 4.9126024 5.0932426 23
49.783314 4.942462 5.2303619 9
0.87764966 5.1763129 5.2528057 6.0999999
17.065699 5.1185613 5.2851119 12.8
17.183252 5.2782226 5.1930151 19.200001
17.934982 5.0972867 5.2631459 17.0625
18.178808 5.0968275 5.2073755 11.1
18.434299 5.2708836 5.0481844 9.1000004
18.736923 5.1132507 5.0962987 8.5500002
19.033268 5.2111053 5.1904402 6.5
17.087597 5.4970026 5.1648245 13.9
17.514954 5.3030729 5.0972157 7.4000001
18.045912 5.3735185 5.1817451 15.483334
18.308098 5.4786077 5.1743512 11.5
18.610567 5.3446379 5.2045507 12.6
18.686649 5.4272413 5.06462 7.8000002
55.656643 5.3105206 5.0676403 9.6000004
15.481296 5.7482185 5.2121201 18
17.050865 5.7023649 5.2284541 7.3000002
18.116108 5.708672 5.1563931 11.05
18.54026 5.6278009 5.201272 16.924999
18.778393 5.7120562 5.1305637 13.775
19.227945 5.7508855 5.2120614 18.1
48.201736 5.791676 5.1272011 31.200001
15.356851 5.8198338 5.1292491 9.8999996
15.45472 5.9385357 5.1448021 9.3500004
17.851707 5.8723855 5.0553198 12.599999
18.206614 5.8925219 5.0442929 9.1000004
18.686705 6.0146537 5.22504 32.799999
19.146412 5.9473243 5.2289681 14.2
23.067608 5.901741 5.0545406 9.3000002
32.429031 5.9269481 5.1770916 17.6
5.1266699 6.1851349 5.2487788 18.200001
16.07605 6.2693939 5.2443118 16.5
16.230137 6.1772242 5.1954999 11.3
17.875576 6.0605531 5.1333313 20.6
18.254318 6.156796 5.0858045 9.4125004
18.52718 6.2445769 5.2077231 16.200001
18.708588 6.2006326 5.1434031 18.65
53.669785 6.2087383 5.0992589 7.0999999
15.209664 6.4341545 5.2444839 18.700001
15.724072 6.3882456 5.1019535 19.25
15.90619 6.5510998 5.196209 16.674999
16.152786 6.5115929 5.2775035 9.8000002
17.552685 6.530652 5.113996 15.4
18.363527 6.4730825 5.0441742 27.1
18.487188 6.5055666 5.1658545 16.699999
31.398973 6.4338388 5.127634 24.9
-1.218312 6.7456841 5.2099466 7.1999998
15.763089 6.7053452 5.0497046 21.125
