# .PCD v0.7 - Point Cloud Data file format
VERSION 0.7
FIELDS x y z intensity
SIZE 4 4 4 4
TYPE F F F F
COUNT 1 1 1 1
WIDTH 1176
HEIGHT 1
VIEWPOINT 0 0 0 1 0 0 0
POINTS 1176
DATA ascii
264.18445 378.19339 -23.914768 9.6596794
264.48135 377.47717 -24.092527 15.548496
273.06638 378.25403 -23.884815 8.0550003
273.68207 378.06006 -23.575191 10.839375
275.11353 377.94156 -24.119459 6.9050002
283.26566 378.22937 -23.393867 9.6674604
283.99823 378.10495 -23.149551 10.946178
275.34399 379.33173 -23.525314 8.8027592
276.62756 379.21799 -23.476894 7.2262125
281.81812 379.07364 -23.374161 8.191783
282.78336 379.41208 -23.451334 8.6685162
283.70102 379.37839 -23.474369 10.156054
285.48755 379.2821 -23.53149 6.5496788
274.93256 380.32825 -23.533566 8.1300001
282.57632 380.70966 -23.849384 7.269372
284.21439 380.84482 -23.616219 9.3054161
285.06747 380.59256 -23.657417 8.8711109
284.83804 381.26059 -23.806601 9.543334
257.72052 383.70038 -23.924894 6.6549997
259.6474 383.6095 -23.900438 11.1
260.70361 383.57703 -23.228558 8.6012497
273.2674 383.46527 -23.666513 9.79
279.03723 383.10388 -23.581413 7.1625004
280.35724 383.10291 -24.060352 7.1280861
282.58606 383.367 -23.751642 6.7906313
253.68806 384.2258 -23.517954 7.9032521
258.76184 384.43115 -23.606119 9.1165419
259.92206 384.66876 -23.447872 7.0480895
261.09796 384.84869 -23.369333 6.5839081
273.71686 384.24695 -24.081366 6.4400001
278.23486 384.6384 -23.474922 9.6399994
279.00351 384.46085 -23.37763 9.1668978
280.26709 384.52322 -23.602791 9.2387028
281.50134 384.61246 -23.425711 9.7467203
282.52145 384.34851 -23.616865 8.1277285
247.2321 386.24365 -23.19157 6.7199998
251.60519 386.1954 -23.677216 18.905003
252.15584 385.63525 -23.795284 15.68
257.53949 385.49933 -23.520006 10.396875
258.75119 385.82303 -23.384226 10.460808
260.00613 385.47485 -23.84137 8.0439978
260.9707 385.79059 -23.920879 5.8249998
262.57672 385.56937 -23.849846 7.8299999
274.2074 385.96451 -24.016012 6.6700001
274.61475 385.41217 -24.034824 8.9974995
276.35175 385.69162 -23.458784 8.9573956
277.76346 385.91104 -23.353357 9.8505669
278.49365 386.25336 -23.908134 9.6633377
280.11072 385.88327 -23.510033 9.6762695
281.50494 385.94952 -23.537882 8.6388969
282.51453 385.99243 -23.359348 6.1823206
283.6442 385.36951 -23.281862 10.804271
247.50102 386.95273 -23.424856 6.3600001
249.10396 387.54785 -24.029161 8.1499996
250.72653 386.96625 -23.563038 18.17
253.85947 387.26361 -23.688848 12.730022
254.63477 386.86456 -24.01697 6.3099999
256.29044 387.13855 -23.834455 10.974512
258.51572 386.9292 -23.679026 10.128433
259.50369 386.51025 -24.130539 12.237231
262.211 387.06683 -23.535042 6.5510478
276.24149 386.42361 -23.786308 9.5888615
277.57755 387.27441 -23.588943 12.128743
280.39465 386.97357 -23.610382 10.764709
282.02527 387.36456 -23.217869 11.753438
282.50153 387.12567 -23.152946 11.79108
284.50766 387.44708 -22.924582 6.25
284.9248 386.69388 -22.962952 5.5700002
248.84547 388.83136 -24.01004 6.29
249.54625 387.82571 -23.651688 7.4349995
252.75162 388.02533 -23.831501 15.479801
253.64685 388.16492 -23.411091 12.775961
255.1255 388.10876 -23.114521 15.008663
255.76743 388.52979 -23.068203 11.379011
257.17004 388.39297 -23.616508 9.1807537
258.24683 387.79214 -23.285446 7.3890305
261.95367 387.8483 -22.936403 7.7750001
276.28067 388.18155 -23.528313 7.8824997
277.42245 388.49493 -23.555687 9.3993883
279.0506 388.12003 -23.858624 7.6279163
280.21936 388.16846 -23.346066 6.1466665
282.61871 387.64926 -23.379524 11.770834
249.76398 389.64929 -23.526016 7.1754832
251.13562 389.70743 -23.061609 8.9149942
251.84503 389.29074 -23.330557 10.358326
253.78513 389.4281 -23.253502 17.047871
254.76596 389.5264 -23.577984 14.497796
256.30099 389.194 -23.817026 13.339648
257.39346 390.07401 -23.954891 11.711773
278.71942 389.32788 -23.625338 8.6499996
279.7478 389.31677 -23.834736 6.9970832
237.19507 391.06912 -23.54332 4.1399999
251.29749 390.45905 -23.328766 6.5999999
252.26445 390.86984 -23.726072 6.5049996
253.71503 390.94385 -23.676731 11.289999
254.77238 391.20975 -23.782034 13.302707
256.17377 390.48529 -23.359507 14.126834
257.38086 391.20502 -23.440514 15.16
235.84213 391.86584 -23.818893 7.6360416
238.59956 392.40894 -23.583662 7.4153862
239.35992 391.94724 -23.22142 5.4899998
241.01184 392.21173 -23.486549 9.0431137
254.13689 391.43115 -24.106138 9.4821987
255.27971 392.47314 -23.453989 6.7551847
257.11771 391.86377 -23.754614 15.564999
238.83821 393.36533 -23.315985 8.5179968
239.54794 393.29776 -23.114435 9.9355373
240.73206 393.24664 -23.120274 9.7905235
252.83456 392.85901 -23.236881 9.5299997
253.8186 393.20557 -23.515398 6.9998231
254.31323 393.28824 -23.623869 8.9859371
256.60928 393.12979 -23.151367 9.1396446
263.93469 393.27264 -23.266268 9.9399996
269.95792 393.76233 -23.543995 7.46
241.15601 395.05481 -23.680855 8.6000004
242.76312 395.05139 -23.891983 14.060608
245.74341 394.7843 -23.160358 6.3482642
247.49399 394.40134 -23.28569 10.16
253.44638 394.37076 -23.468544 14.562209
254.28891 394.60242 -23.20697 5.2960882
269.14117 394.24103 -22.899475 6.0900002
270.04291 394.81058 -23.282169 11.237484
270.79388 393.99854 -23.383358 7.8259592
272.32013 394.70749 -23.358429 11.122672
240.72073 395.82999 -23.615015 8.9549999
243.37428 395.83871 -23.458418 8.5974693
244.92461 395.98862 -23.204922 10.546719
245.80927 395.39758 -23.243752 7.7550001
250.58897 396.31183 -24.054733 10.099154
252.55342 395.46518 -23.118128 11.029593
253.42274 395.66956 -23.920647 13.249381
269.12408 395.27448 -23.545334 9.8999996
269.73419 395.71213 -23.392187 8.8724995
271.53293 395.64359 -23.640942 10.866869
272.36371 395.64841 -23.767174 12.404297
241.32899 397.71008 -23.212978 7.3200002
242.23108 397.31665 -23.292328 11.951652
243.48938 397.29688 -23.608215 10.912925
244.22482 397.52371 -23.252752 8.282917
249.91766 396.87665 -24.105286 6.2124996
250.51485 396.49863 -24.115059 14.430799
257.85962 397.24371 -23.302458 9.46
258.37833 397.62778 -23.638725 9.46
271.3822 396.91528 -23.415878 9.6804943
236.76869 398.93787 -23.564272 4.9099998
244.51302 397.88327 -23.416142 7.9720497
249.80476 398.97559 -23.810446 7.0300002
250.82458 398.1503 -23.916294 6.8495216
257.8302 398.11566 -23.546772 8.876667
259.69968 398.89862 -23.84853 9.3416662
236.02246 399.41998 -23.260262 5.5500002
239.24561 400.22876 -23.237787 9.3599997
243.83479 399.27124 -23.809601 8.8075447
245.01672 399.43628 -23.396933 7.7970939
245.33145 399.7843 -23.936409 9.5799999
249.06921 399.10333 -24.093866 5.77
259.0188 399.26523 -24.05599 8.7550001
260.32297 399.92554 -23.62261 11.469757
260.94501 400.06317 -23.225857 10.905071
239.01389 400.8327 -23.092936 5.3699999
243.86929 400.54794 -23.624313 5.3000002
244.65225 400.81097 -23.668104 8.4899998
245.28845 400.73798 -23.643261 13.719896
260.20795 400.54385 -23.368877 12.58333
234.7034 402.42825 -23.517559 10.027361
237.19472 402.37314 -23.235844 6.1399999
240.99011 402.44876 -23.434824 5.9381251
241.91753 402.09912 -23.036058 8.73489
243.23286 402.10587 -23.457754 8.9693766
244.62048 402.2504 -23.492661 6.4549999
246.39215 402.47211 -23.878719 11.24625
247.51109 402.57822 -23.410025 8.0954142
255.4202 402.46054 -23.017147 4.9699998
255.75172 401.95697 -22.986656 5.8899999
266.13516 402.48499 -23.540359 9.4750023
234.08136 402.97324 -23.182175 10.51
237.22174 403.43082 -23.380014 7.3561454
241.08748 403.47665 -23.015366 5.4400001
242.10355 403.41507 -23.891779 7.9890575
242.75674 402.8783 -23.893177 9.9230165
245.72865 403.02008 -23.786167 11.67
247.67612 403.28305 -23.193596 6.3899999
264.2338 403.39218 -23.49342 11.19
266.13947 403.36505 -23.300167 12.364467
236.95447 405.06024 -23.365349 10.25
238.05914 405.03424 -23.435476 7.3350005
244.31419 405.32019 -23.76214 5.21
253.84584 404.8327 -22.912745 7.2550001
263.77722 404.11884 -23.579445 6.5999999
265.18689 404.61566 -23.674034 10.735879
266.14291 404.91336 -23.309076 10.121198
268.05743 404.85388 -23.490707 6.6999998
268.76886 404.60852 -23.677536 6.3325
278.26245 405.23737 -23.779186 7.0300002
278.67383 404.48065 -23.810638 5.6300001
280.06104 404.73691 -23.437618 5.4523473
236.59747 406.46228 -23.749382 10.679956
237.86758 406.0311 -23.394375 10.0325
239.50667 406.44135 -23.331303 11.063799
243.35921 406.12213 -23.470894 8.4621515
244.41055 405.98517 -23.208218 7.2140818
257.19925 406.23047 -23.507149 9.7933331
258.34973 406.09955 -23.636993 6.3150001
265.59924 405.48877 -23.684469 5.9499998
267.72159 405.57111 -23.415558 5.8099999
268.57639 406.06989 -23.740227 5.8099999
280.3812 406.21808 -23.591778 7.3789062
282.70609 406.3175 -23.66383 6.4151049
233.34012 407.35641 -23.386866 9.743515
234.23253 407.60498 -23.599773 9.0524998
237.15337 407.45523 -23.299339 10.538333
237.97673 407.44995 -23.451208 10.236845
239.11255 407.27881 -22.978168 10.934922
242.25642 407.54285 -23.283129 10.31
243.29688 407.08444 -23.401932 8.4537992
257.21573 406.88623 -23.795803 6.1406507
258.31775 406.66376 -23.092674 6.4400001
282.49384 407.33853 -23.642738 7.9950624
283.80273 407.02847 -23.568258 8.28125
232.27759 408.71036 -23.396902 12.305967
233.53642 408.74008 -23.413279 13.442406
234.21864 408.05597 -22.971279 10.680485
236.88354 409.03586 -23.187157 8.8942261
238.38023 408.59875 -23.835297 8.4050007
247.05414 408.42783 -23.080687 7.0500007
282.37079 408.14474 -23.165592 8.5364723
283.52573 407.93973 -23.980253 8.4300003
226.66316 409.81619 -23.598061 16.165001
229.82732 409.89584 -23.472687 10.965068
230.30481 410.13562 -23.428143 12.64025
231.71712 409.75992 -23.277578 13.929382
233.51411 409.50638 -23.388632 12.08662
234.63499 409.40695 -23.220427 10.439329
235.81512 409.81213 -23.305937 11.150298
236.4892 409.61841 -23.221624 11.869436
261.25085 410.05557 -23.165955 5.996953
227.66206 411.39783 -23.393524 16.345001
229.76422 411.12814 -23.286865 9.5896873
230.19641 410.86511 -23.210072 11.71021
231.97974 411.29172 -23.421942 13.855789
233.58221 410.69635 -23.294651 6.77
235.56337 411.33887 -23.624079 9.2553215
246.22729 410.65854 -23.35207 7.0599999
249.77203 410.87445 -23.559561 12.672501
259.5849 410.88159 -23.475618 6.3600001
261.12024 411.23154 -23.34993 9.2384262
224.05861 412.52798 -24.082617 10.61875
228.94836 412.5618 -23.659069 13.996999
230.76508 412.48193 -23.210884 11.780775
231.80733 411.85623 -22.874796 13.328835
234.27863 412.26581 -24.047871 12.413847
248.81155 412.45422 -23.68816 16.395
256.09131 412.61575 -23.662188 6.6747289
258.99164 411.82318 -24.093254 11.884336
260.19708 411.9415 -23.428223 12.83587
228.74298 413.078 -23.741573 14.436846
229.3558 413.9288 -23.988827 14.876623
230.58633 414.19635 -23.52054 12.104612
231.8308 413.20746 -23.664537 11.942527
233.44977 413.49896 -24.077723 13.047087
247.22568 413.64984 -23.633184 11.864375
248.19516 414.15009 -23.65387 10.486667
249.69223 414.23346 -22.890451 7.3099999
260.07327 413.50406 -23.512447 8.5822935
226.86172 414.91876 -23.847424 11.637503
228.23346 414.52628 -23.884321 19.645
229.54364 414.85944 -23.05588 14.729815
230.44855 414.57742 -23.478981 10.61
232.29303 414.75195 -23.721964 11.696408
232.92822 414.68692 -23.391111 12.998021
246.13872 415.02628 -23.451097 9.5029163
247.80357 415.02075 -23.739014 12.127501
249.00066 414.87598 -24.015377 8.9300003
250.99652 414.91644 -23.839451 8.5399103
222.27969 416.28845 -22.96273 10.340486
222.48492 416.76694 -23.383194 12.09625
224.86934 416.15604 -24.063936 8.1099997
225.61269 416.16217 -23.437347 11.089378
227.09041 415.60034 -23.832794 9.5999994
228.36078 416.54984 -23.425913 11.460693
229.40652 416.58459 -23.664516 10.264999
230.03166 415.83112 -23.718658 9.4300003
232.36328 415.74695 -23.228792 8.8000011
245.4212 416.06024 -23.433826 8.6749992
247.38458 415.85724 -23.934238 12.55
222.16486 417.31784 -22.968834 10.534029
222.85718 417.70166 -23.429169 10.26
224.61026 417.21863 -23.374424 9.881875
226.13803 416.84521 -23.238636 12.274841
227.56148 417.07416 -23.218048 10.474331
228.96515 417.64383 -23.713837 10.303838
243.65735 417.94318 -23.498951 7.855
244.28624 417.21762 -23.514374 6.8800001
252.17072 417.80917 -23.319679 11.792152
224.91199 418.53461 -23.276148 6.6199999
226.96709 418.67734 -23.382521 9.8463068
227.98755 418.90451 -23.144291 10.967978
243.05914 418.83765 -23.446224 7.0825
246.15561 418.87717 -24.118593 10.407372
246.86751 419.31512 -23.108107 8.2800007
252.06303 418.5968 -23.564453 11.571946
253.57056 419.00253 -23.745356 12.223332
255.16608 418.97015 -23.36644 7.3637404
277.60638 418.98132 -23.382698 5.9144211
278.41708 418.65469 -23.490448 5.4200001
222.79449 419.49133 -23.228886 8.2199993
225.11899 419.44885 -23.216652 9.2911434
226.71945 420.31165 -23.267586 9.3649998
246.0013 420.48999 -23.396843 13.924171
253.80281 419.74445 -23.483105 6.4099998
254.78748 420.09061 -23.468225 10.634437
223.67336 421.1264 -22.948362 5.9499998
225.6935 421.64825 -23.610928 11.039324
226.7821 421.13535 -23.230879 11.542598
245.0574 420.66779 -23.245377 7.5100002
245.90509 420.70334 -23.505144 12.074944
247.3597 421.36102 -23.162088 10.12
254.06187 421.0434 -23.501665 5.5999999
254.26508 421.32401 -23.209467 14.438686
275.28677 420.92816 -23.433838 6.453125
223.0108 422.21277 -23.023708 8.29
224.30469 422.50003 -23.314886 9.6533327
241.97592 423.99039 -23.994511 8.6800003
228.92946 425.59192 -23.622332 5.52
241.40588 424.8942 -24.037504 8.6800003
221.20454 425.98248 -23.101387 7.8499999
228.43178 426.20215 -23.61381 10.825
229.41 426.57159 -23.44977 12.186329
230.10968 426.58899 -23.348774 9.1000004
243.13904 426.5499 -23.533531 11.985085
246.94167 426.55618 -23.752853 9.8975
251.24376 426.71054 -23.74877 13.228855
227.99147 427.76205 -23.317234 12.801452
229.10606 427.99677 -23.592819 15.54
241.69171 427.94531 -23.300838 13.15741
246.68169 427.68945 -23.560247 8.5939579
248.14169 427.5296 -23.355022 9.1964588
249.7901 427.50339 -23.493748 6.52
215.44327 429.01642 -23.33532 13.249725
216.55536 429.41415 -23.54369 12.788616
219.17891 429.47119 -23.935194 9.1028471
220.33246 428.30316 -23.218571 9.4099998
221.38802 429.28403 -23.293978 5.5750003
228.59467 428.70911 -23.901222 10.456778
238.90027 429.11688 -22.973335 9.5799942
239.47974 428.7937 -23.559708 10.362677
240.38629 428.3504 -23.988941 5.8099999
248.94997 428.69385 -23.062561 11.326612
249.56537 428.88095 -23.251623 13.919475
205.14745 430.0116 -23.733421 13.969998
216.78867 429.67728 -23.222256 12.077232
217.93451 430.62042 -23.364227 10.922504
219.38763 429.77216 -23.22986 11.648594
220.32629 429.67969 -23.432117 6.8699999
221.14624 429.80408 -23.746908 6.1100001
217.84105 431.33154 -23.537563 14.460001
210.1935 434.5527 -23.261917 16.651812
236.63284 434.15982 -23.740103 9.800272
241.03229 433.92267 -23.124741 5.3700008
208.81915 435.04858 -23.405033 13.960727
209.84119 435.55054 -23.216988 7.96
237.66292 435.42712 -23.224098 5.8131256
214.51262 436.69556 -23.289978 11.59
236.70854 436.56946 -23.285501 12.737337
214.69893 437.15585 -23.646791 12.095
216.82718 438.20282 -23.193779 13.64
236.009 437.69376 -23.343441 13.042848
216.86508 439.5163 -23.244312 12.141916
217.89178 438.69788 -23.678207 11.333333
219.67567 439.33731 -23.680254 8.4548159
219.98114 439.61969 -23.792271 7.9922104
233.81265 439.2529 -23.625792 9.9429998
216.79195 439.8457 -23.343184 11.720535
217.93942 440.02844 -23.385725 11.3
219.41846 440.61273 -23.767849 12.132054
220.32719 440.37088 -23.45121 10.336479
215.08771 441.71997 -23.755478 9.8500004
216.25349 441.41611 -23.526855 8.6800003
218.85698 441.61011 -23.44804 11.645353
219.99805 441.58362 -23.462168 9.7145567
206.67239 442.96954 -23.53339 10.879999
215.49924 442.53894 -23.550896 8.7600002
217.94379 443.4321 -23.872696 9.8885355
219.53214 442.62537 -23.559381 8.1170473
219.99771 442.44531 -23.627129 11.010319
205.53496 444.09222 -23.249428 10.27
217.11667 444.40051 -23.679564 9.0707903
218.158 444.55869 -23.78574 9.0887985
218.99948 444.26422 -23.337944 9.472578
230.95787 444.58932 -23.251446 9.1769772
213.06712 445.63007 -23.510824 8.7399998
215.66684 445.71542 -23.114971 12.699978
216.63962 445.38043 -23.738209 9.0636616
217.76665 445.12692 -23.332792 9.231823
230.97491 444.82901 -23.221403 9.3722696
234.46721 445.29175 -23.236378 9.5500002
238.64578 445.45587 -23.587784 8.4899998
239.33664 445.62207 -23.434383 12.315803
212.76764 446.0802 -23.536224 7.3699999
215.84721 446.35162 -23.528662 10.737767
216.63907 446.63824 -23.350618 9.1872311
232.89462 446.10605 -23.22283 10.565001
238.94658 446.33438 -23.210491 15.359999
211.0551 448.55148 -23.334204 12.399999
214.17889 448.54456 -23.693024 8.0364237
215.68425 447.81558 -23.716898 8.8508825
217.05283 447.45621 -23.150482 15.431513
202.72476 449.03662 -23.439707 6.9669447
209.6777 449.8158 -23.048656 11.5
210.37383 449.39078 -23.240446 10.36573
212.83305 449.61084 -23.373161 10.699381
214.07327 449.28003 -23.206383 8.3312931
215.31438 449.14404 -23.50378 10.45135
227.5145 449.64017 -23.575037 9.0086851
202.63547 450.01477 -23.378819 8.7600002
209.44873 450.98926 -23.103775 12.010946
209.89363 450.8728 -23.076944 8.9375191
213.03282 450.16342 -23.203382 12.181905
214.0882 450.74164 -23.276615 11.780558
214.9007 450.37762 -23.531916 10.203363
227.41342 449.88412 -23.430298 9.1128397
229.20836 451.07144 -23.380737 12.187498
201.21249 452.17352 -24.013577 4.4000001
208.33681 452.26855 -23.040546 10.777779
208.69865 452.27228 -23.027264 8.6253204
211.79056 451.87231 -23.161509 9.2053013
212.37674 452.15662 -23.109734 9.1255255
215.75259 451.42929 -23.594852 8.4329414
216.40802 451.78345 -23.349354 9.2942123
228.69678 451.33521 -23.218536 9.212882
200.56604 452.74463 -23.961166 5.9899998
201.43002 452.94989 -23.487585 5.1949997
208.27124 452.7804 -23.018339 9.227067
208.47147 452.61258 -22.907459 8.3100004
210.83078 453.53214 -23.133953 9.6915941
211.166 453.38443 -23.168631 10.834732
212.39407 453.22672 -23.187054 9.8279696
225.66499 452.78113 -23.081255 11.38608
227.35156 453.52676 -23.241676 11.747265
228.4075 453.52972 -23.206135 11.28
229.36362 453.36584 -22.958363 12.89
233.80252 453.3634 -23.968761 4.9200001
210.29492 454.47461 -23.052763 9.1102648
211.2133 454.70102 -23.1173 9.9144306
212.26817 454.20471 -23.301504 11.878376
223.89032 454.39633 -23.150602 14.484797
233.23067 454.50742 -23.442154 11.835417
234.37158 453.94458 -23.521034 9.2575006
185.82271 455.78574 -23.304581 14.501235
209.63232 455.42493 -23.009806 11.779076
209.86079 455.63983 -23.085024 9.9833612
211.1862 454.97131 -23.1929 12.706474
223.87059 455.01248 -23.22406 13.625964
225.76283 455.70319 -23.232965 16.299999
233.20329 455.11133 -23.770233 10.36
185.12482 456.55923 -23.082375 13.063907
185.59941 456.52063 -23.406462 14.66
193.4111 457.48254 -23.427029 9.7700005
205.7598 456.44785 -22.896873 12.29
207.883 456.84512 -22.988892 8.2739096
209.31546 457.17065 -23.048773 9.0907965
209.92924 457.05588 -23.026098 9.0389986
192.81815 458.1076 -23.402493 10
208.16692 458.66885 -23.163164 11.458878
208.72461 458.55295 -23.135679 7.80687
209.69722 458.7265 -22.923729 8.8800001
222.13596 457.81741 -23.197803 8.7299995
206.15314 459.73981 -22.899036 9.3758335
207.7336 459.51114 -22.958565 7.7173944
208.63435 459.45395 -23.135929 10.860609
220.72217 459.16754 -23.050709 10.127501
186.30795 461.00085 -23.438528 8.3100004
187.0162 460.51904 -23.443447 12.33
188.1756 460.52493 -23.426455 13.79981
205.86716 460.15485 -23.078362 7.3000002
206.49617 461.10098 -22.913763 8.5566673
207.60547 460.37595 -22.991539 8.7971754
205.24982 461.75952 -22.882404 7.9325004
206.85364 461.49582 -22.913855 7.5907154
204.93951 463.71918 -22.935213 9.6499996
205.32637 464.48032 -22.944761 9.8481731
214.06978 465.76376 -23.559031 6.626667
213.40265 466.72238 -23.38299 6.3400002
215.1953 466.98853 -23.617613 8.1517191
216.26237 467.10928 -23.33123 7.9200001
214.50229 468.06232 -23.516317 6.9400001
215.33075 468.63052 -24.129147 6.9400001
208.23772 476.41858 -23.335987 6.0895834
207.88408 477.21451 -23.491333 6.1325002
208.94797 476.8591 -23.633659 6.0150003
200.16843 479.6221 -23.355471 10.035
201.88579 480.26428 -23.841274 12.21
201.40804 480.98135 -23.817989 7.8600001
190.08105 483.72293 -23.374157 7.5900002
189.61122 484.48831 -23.453552 5.1100001
190.66016 484.20117 -23.840042 7.5900002
173.59798 493.40759 -23.855301 8.4199991
174.75818 493.99582 -23.110998 6.6599998
172.36743 494.81699 -23.953094 13.65
173.70947 495.38406 -23.676929 14.6
174.22935 494.67596 -23.086433 11.94
173.18068 496.06436 -23.655029 12.7
176.84581 514.26544 -22.903059 8.0300007
154.67241 543.33374 -23.331272 5.8699999
155.34828 543.82098 -23.290613 5.8699999
153.59053 544.67517 -23.042589 9.9399996
154.099 544.45502 -23.344423 7.0733333
154.37534 545.24353 -23.254242 9.9399996
95.80883 604.86261 -24.061184 15.8
95.290108 605.70923 -23.908691 18.99
95.839195 605.7793 -23.073559 17.724979
96.590195 605.41443 -23.741638 13.37
95.228889 606.59973 -22.967079 17.610001
95.378845 606.61682 -23.315922 17.940313
95.039253 607.47784 -23.136856 12.51
456.9183 -301.59668 -22.264971 6.8733335
457.91223 -301.90216 -22.469687 12.57
456.63208 -300.41284 -21.931549 7.79
472.12564 -291.76248 -22.29693 9.459816
471.79434 -290.89395 -21.772207 8.5200005
436.9888 -258.48761 -22.308399 13.907708
434.3681 -253.42526 -22.565922 11
434.79752 -253.58374 -22.466372 12.228889
487.84265 -251.70811 -22.787388 5.9087496
488.83887 -251.95454 -22.280352 6.5983448
489.52496 -252.12772 -22.774372 6.3507881
488.724 -250.84428 -22.360693 8.1150665
489.46918 -251.28166 -22.508097 8.3446493
433.68726 -248.17178 -22.806808 11.055
434.75229 -248.91641 -22.615295 10.37
444.65802 -224.94098 -22.525919 7.9299998
446.71228 -225.29767 -22.487537 10.486876
444.37961 -224.32072 -22.788912 10.34
445.6875 -224.35397 -22.460302 13.53875
446.40216 -224.46759 -21.764233 13.502708
448.09473 -224.35985 -22.166002 9.5925007
443.04114 -222.62569 -22.54282 8.2299995
444.23706 -223.03249 -22.384308 9.1294441
445.20056 -223.45189 -22.76688 11.989649
446.60443 -223.15849 -22.182743 12.622374
447.97192 -223.46587 -22.501608 9.8896971
449.2417 -222.65103 -22.175875 14.216681
441.3703 -221.3194 -21.962797 10.75
442.72906 -221.54712 -22.20223 12.0075
444.21814 -221.38132 -22.280306 9.1711559
445.36099 -221.73924 -22.218939 9.1115971
446.51675 -221.61909 -22.149006 11.535159
447.88132 -221.81725 -22.266102 10.186888
435.23828 -220.06779 -22.559513 8.6099997
436.03424 -220.42456 -22.645662 7.1500001
440.29211 -220.60614 -21.947161 11.190001
441.26605 -220.22873 -21.928024 8.2950001
442.67685 -220.43071 -22.403078 9.5042524
444.38864 -220.34659 -22.242542 10.249745
445.57513 -220.46942 -22.181786 8.1847296
446.32385 -220.63812 -21.666904 8.7876606
447.71988 -220.36987 -22.336176 10.491691
449.01782 -220.61726 -22.090464 11.829132
460.46973 -219.87054 -22.646513 13.589687
435.47809 -219.69821 -22.746229 8.6099997
440.70444 -219.72385 -22.038054 11.21
441.71179 -219.0444 -22.186773 10.298697
442.88037 -219.41536 -22.013609 8.716938
444.30115 -219.37978 -21.776825 11.255889
445.58176 -219.16568 -22.760132 9.9297781
446.61188 -219.17708 -21.932669 9.768363
447.80167 -219.44054 -22.212118 10.998408
448.9892 -219.11729 -22.395519 10.64
459.91415 -219.70497 -22.314529 15.13
460.50845 -219.78943 -21.826941 13.54
439.66888 -217.90428 -22.51746 10.6825
440.39783 -217.78806 -21.707317 9.1029263
441.83441 -218.09717 -22.360287 10.491437
442.95035 -217.84819 -22.016802 9.8427744
444.29776 -218.0125 -22.040812 10.121848
445.17838 -217.93559 -22.363619 10.762088
446.41763 -217.74472 -22.437084 10.301953
448.32611 -218.56067 -22.800911 11.18
375.73184 -216.06099 -22.78253 6.8433328
438.29898 -216.86914 -21.927662 9.9300003
439.01767 -216.8436 -22.136444 10.820859
440.04785 -216.3188 -22.160896 11.217142
441.44958 -217.21088 -21.652355 11.134329
443.03836 -216.34137 -22.079279 10.117864
444.09021 -216.64326 -22.411133 11.080474
445.49353 -216.99007 -22.40461 11.097986
376.83191 -215.10622 -22.673346 11.6
436.55164 -215.14604 -22.428263 6.6525002
437.63129 -215.46513 -22.113724 8.5184879
439.22656 -215.31323 -22.307762 8.9596252
440.47086 -215.33942 -22.011757 10.609968
441.50049 -215.21172 -21.997467 10.610919
442.82919 -215.53223 -22.374084 11.798027
444.75793 -215.81969 -21.8424 10.5
376.24274 -214.49101 -22.355797 9.4200001
426.46722 -213.66174 -22.771736 7.04
436.49915 -213.96822 -22.126238 9.1000004
437.84717 -214.27255 -22.312952 11.637497
439.02518 -214.14215 -21.670376 10.585644
440.29089 -214.07239 -22.233322 9.3927708
441.63309 -214.19843 -22.219692 9.3605251
443.18982 -214.18378 -22.261261 10.711284
426.69788 -213.42093 -22.863693 7.04
434.56116 -212.96207 -22.17112 9.1999998
435.51083 -212.89017 -21.999214 8.8670826
436.65909 -212.98961 -22.340219 8.5306988
437.87958 -212.89227 -22.449228 11.865329
439.15338 -212.86464 -22.257568 11.006894
440.22412 -212.71942 -21.982374 9.6073761
441.92117 -212.79782 -22.276176 10.220699
442.8233 -213.00339 -22.30677 10.775
443.55219 -213.12552 -22.713284 13.62
396.9469 -211.94429 -21.767487 8.0128126
426.30798 -212.15997 -22.802891 10.584167
427.71973 -211.70001 -22.863659 7.9506254
433.87827 -211.39528 -21.961306 10.0325
434.88138 -212.16003 -22.79834 9.9899588
436.13171 -211.39474 -22.226524 8.2833252
437.48111 -211.50334 -21.927635 9.1877785
439.30429 -211.71567 -22.673294 9.8313751
440.25372 -211.22304 -22.17746 8.7047815
441.0777 -211.86963 -22.5187 7.1149998
432.83783 -210.04459 -22.528057 9.4390068
433.70609 -210.40047 -22.083673 10.126274
435.31293 -210.39581 -22.828844 6.5530262
436.20709 -210.02957 -22.465824 8.3879576
437.91263 -210.29675 -22.408564 8.7523727
439.08176 -210.41614 -22.233641 9.1206589
440.7352 -210.42953 -22.562586 7.1900001
441.97723 -209.87473 -22.818806 10.87
432.83594 -209.36884 -22.33736 8.9090395
433.91312 -209.2227 -22.055674 11.011203
435.16541 -208.94266 -22.212126 11.110647
436.1528 -209.30281 -22.863791 8.2634554
437.81104 -209.19821 -22.55002 7.4019136
441.4447 -208.97792 -22.856544 10.33
442.51569 -208.76135 -22.62077 10.87
420.64996 -207.81412 -22.804111 14.587223
425.73605 -207.38013 -22.516329 8.0200005
431.16278 -207.74098 -22.292217 8.5205097
432.50388 -208.03339 -22.418566 10.094388
434.25043 -208.1347 -22.036438 9.9841175
434.99213 -207.30418 -22.216919 9.6649075
436.52417 -207.87247 -22.054775 9.1865034
438.17853 -208.35303 -22.804346 7.2759027
389.85446 -205.90094 -22.301247 10.417774
390.81607 -206.59355 -22.568375 15.811015
420.00562 -207.12112 -22.44381 12.877208
425.26285 -206.48712 -22.708836 7.4200001
428.87592 -206.10477 -21.869509 10.2575
430.05728 -206.57317 -21.827524 7.9116669
431.41354 -206.30676 -22.28771 8.5783358
432.67065 -206.3667 -22.396322 9.806715
433.91379 -206.60687 -22.013092 10.277154
435.02481 -206.13925 -22.213238 10.616858
436.30078 -207.11809 -22.85047 10.174915
389.65756 -205.37508 -22.350189 10.559525
420.53699 -204.65573 -22.724499 12.14
430.00247 -205.254 -22.746799 8.9112606
431.65247 -205.16005 -22.392807 7.364841
432.95078 -204.86472 -21.890625 11.173443
433.93188 -205.06438 -22.389168 9.6746035
434.78918 -205.15559 -21.75156 7.0788369
391.4267 -203.63155 -22.511023 11.301731
427.49576 -204.15251 -22.080385 12.314167
429.96454 -203.94435 -22.09787 7.6136079
431.23474 -204.14862 -22.075113 8.7575607
432.83701 -203.94624 -22.13027 10.384818
434.26624 -204.52313 -22.736048 10.18
384.90842 -202.19585 -22.785139 15.75
385.58234 -202.72652 -22.818148 17.27
425.46719 -202.07736 -21.762669 15.605
426.95062 -202.76944 -22.682358 9.2192936
427.75821 -203.00671 -22.102869 10.540906
428.92712 -202.69678 -22.13356 8.6909103
430.15625 -202.51451 -22.139761 8.8763313
431.32248 -202.50092 -22.082596 9.6947279
432.56107 -202.54172 -22.645693 8.254961
433.35284 -203.21051 -22.752081 6.6599998
374.28802 -201.60901 -21.940771 9.7600002
424.57129 -201.50813 -22.425348 11.655
426.0444 -201.53772 -21.997194 11.608188
427.21811 -201.39746 -22.238775 10.590296
428.88858 -201.54961 -22.484888 8.5550079
430.36877 -201.26245 -22.309582 10.301519
431.32074 -201.1683 -22.416443 7.7041669
424.37341 -200.03105 -21.875378 13.700417
425.18631 -200.0755 -22.722157 11.446854
426.46988 -200.41124 -22.239656 12.945155
427.08838 -200.18018 -21.664381 11.912851
428.72131 -200.43665 -22.252319 10.510307
430.19614 -200.04817 -22.376398 11.070664
431.0777 -200.11679 -22.772198 13.725
388.02637 -198.56822 -22.233433 6.1358037
389.39142 -198.83878 -21.747116 6.3800001
422.72552 -199.24858 -22.677042 9.0474997
423.69626 -199.37108 -22.062792 12.82534
425.07947 -198.99107 -22.402885 13.920139
426.12369 -199.32329 -22.715963 11.669576
427.65063 -199.22095 -22.252377 12.584702
429.14539 -199.15309 -22.200302 11.083017
387.19534 -198.18085 -22.518211 6.9875522
388.21295 -197.52408 -22.052649 8.1470098
390.63074 -197.96494 -22.748669 14.710972
421.35693 -197.31032 -21.847874 11.66
422.70963 -197.39 -22.238546 11.292994
423.90265 -197.48358 -22.296833 12.338099
425.08627 -197.46301 -22.400391 13.632756
426.53549 -197.54085 -22.143539 12.319581
427.75552 -198.1357 -22.337435 12.844472
428.68494 -198.09906 -21.845625 13.87
388.15915 -196.23872 -22.109411 8.4475985
389.5871 -196.03477 -22.262272 7.5892286
391.00323 -196.10255 -21.985884 8.1350002
391.66608 -196.29727 -22.189709 7.5500007
393.46384 -196.30257 -22.362541 14.032084
394.4548 -196.09622 -22.095266 14.0725
414.7251 -196.22797 -22.367233 6.8616672
420.23456 -195.72887 -21.883175 11.47
421.22482 -196.19971 -22.225042 11.248222
423.16162 -196.26526 -22.746145 14.189911
424.04688 -196.29025 -22.092997 11.741051
425.16553 -195.98085 -22.196022 12.246387
426.21973 -196.3969 -22.177532 11.650627
427.14044 -196.63208 -22.162041 14.085926
386.09302 -195.2778 -22.749842 5.6599998
388.55548 -194.6102 -21.698921 6.0349998
389.40317 -195.02168 -22.521677 7.953795
391.03629 -195.67422 -22.539471 8.3299999
393.49832 -194.88133 -22.784552 14.454167
394.61972 -194.99797 -22.001381 15.967343
395.75165 -195.17839 -22.172421 11.761667
419.67709 -195.12082 -22.547897 9.6443748
420.9743 -195.05876 -22.379129 12.168282
422.47095 -195.02271 -22.717234 12.86314
424.05505 -194.88364 -22.278112 11.720474
424.85693 -194.71802 -22.161173 10.634247
426.1727 -195.57915 -22.816061 11.300219
384.52237 -193.56888 -22.293058 9.6824656
385.68011 -193.75732 -22.338047 8.3966675
386.4985 -193.74794 -22.644714 7.8384275
388.22919 -193.85678 -22.784416 7.8874998
389.38437 -194.3223 -22.07391 7.8000002
394.60715 -194.13779 -22.133442 12.932343
395.91858 -193.45224 -22.502979 13.529863
419.08026 -194.15698 -22.100054 9.6700001
420.08401 -193.55823 -22.099749 10.957116
421.08893 -194.09563 -22.707865 11.871035
422.68027 -193.68506 -22.134167 11.115568
424.12613 -193.79622 -22.160185 9.7148199
424.93884 -194.28694 -22.306133 10.303762
383.76355 -193.0358 -21.971138 4.9099998
385.47382 -192.33313 -22.207382 7.7595282
386.67209 -192.5119 -21.643749 8.4862499
387.7674 -192.59039 -22.863815 9.4300003
393.72125 -193.02802 -22.227083 10.529556
394.66068 -192.59286 -22.317297 11.205269
415.0946 -192.25894 -22.857464 11.73
416.0509 -192.27942 -21.762075 9.75
418.68265 -192.41576 -22.290005 10.337655
420.09714 -192.267 -21.712078 9.4144859
421.1019 -192.46556 -22.24202 10.691442
422.53912 -192.32413 -22.374386 10.433363
423.85034 -193.09259 -22.848122 10.41
385.61557 -191.08586 -21.769058 6.7719617
386.34 -191.47473 -21.826069 8.6549997
395.18942 -190.87514 -22.848713 8.3325005
395.69507 -191.43376 -22.066025 7.6601501
398.50006 -191.00031 -22.705975 8.8649998
414.71237 -191.7467 -22.174356 10.123333
415.86377 -190.97386 -22.730835 13.88
417.49084 -191.32411 -22.158813 9.4034128
418.7236 -190.9698 -22.555334 11.505154
420.15125 -191.08636 -22.172474 10.886899
421.31613 -190.78711 -22.42474 13.172979
422.02209 -191.32068 -22.84561 10.447466
381.61755 -190.03975 -22.692554 8.8668327
395.66699 -190.25269 -22.275261 8.4374876
396.62939 -189.83403 -22.836643 9.6899996
398.53275 -190.34662 -22.441151 9.0412502
415.17892 -189.71573 -22.075016 8.8175001
416.23322 -190.13351 -22.718988 10.384586
417.02679 -190.0643 -21.616547 14.695704
418.55264 -189.98039 -22.295446 10.651192
420.24365 -189.83356 -22.188507 10.741004
420.9982 -190.1689 -22.181576 8.0849447
372.92981 -188.52638 -22.284685 9.6900005
374.2948 -188.88176 -22.511305 7.5079169
376.93536 -188.17621 -22.249187 9.5799999
380.47021 -188.50191 -22.75724 9.8543701
381.94226 -188.67128 -21.848124 8.0017633
396.1395 -189.06985 -22.261944 8.9099998
397.24216 -188.92123 -22.301971 9.6899996
413.96475 -188.39655 -22.844494 6.6729169
414.80896 -188.20969 -21.719934 8.0375004
416.16855 -188.76378 -22.290125 13.456375
417.18777 -188.59444 -22.129501 12.919616
418.54041 -189.00076 -21.858088 9.9425907
419.92422 -188.99854 -22.270891 9.2877388
374.29382 -188.00815 -22.587107 8.2799997
378.26913 -187.06236 -22.471395 11.689298
380.01505 -187.02864 -22.340727 5.2800002
387.63281 -186.88318 -22.588991 8.4499998
396.77499 -188.00995 -21.784464 8.9099998
414.05438 -187.29805 -22.271839 8.3446598
415.11441 -186.82144 -22.255497 12.550954
415.86151 -186.992 -22.42054 10.779741
417.3103 -187.29338 -21.728319 10.507579
418.67685 -187.51726 -22.102201 6.6333332
340.65341 -185.98831 -22.809412 9.184679
353.9978 -185.5697 -22.806107 7.9000001
371.61008 -185.71689 -22.62682 12.58
378.03281 -186.25293 -22.164906 10.011457
379.78058 -185.99625 -21.664484 9.6300001
380.20746 -186.06976 -22.748985 8.0874996
387.50766 -185.96764 -22.622358 8.3719091
388.38092 -185.72107 -22.73645 9.2700005
410.63507 -185.72263 -22.482719 9.3800001
414.76147 -186.05502 -22.168823 11.344517
416.08582 -186.03746 -22.478899 9.1481504
340.34271 -185.00017 -22.861845 10.030001
370.93759 -185.1778 -22.620354 5.5100002
371.67102 -184.97185 -21.816271 8.6522226
373.9339 -184.36023 -22.08824 8.6350002
377.39529 -185.05916 -22.774483 11.333333
379.15311 -185.08287 -22.225935 10.818959
380.30768 -184.80533 -21.811419 8.8559942
388.29266 -184.99794 -22.372576 7.9291439
409.99747 -185.05219 -22.409744 10.775555
410.76587 -185.39107 -22.269636 9.3800001
414.03796 -184.7993 -22.637398 10.41739
415.10352 -185.32297 -21.806747 9.1100006
416.22852 -185.33807 -22.474964 7.8954515
373.6022 -183.75633 -22.647701 6.8294191
374.54321 -183.94633 -22.847822 10.141307
379.66504 -183.69296 -22.412949 13.257506
380.79355 -183.61674 -22.000116 11.095357
381.58496 -183.63861 -22.324963 9.8751659
388.94513 -183.90323 -22.660105 7.6841669
412.75787 -183.09009 -22.456581 14.04
413.59952 -183.6259 -22.064123 13.262176
347.75201 -182.44125 -22.414564 13.289427
377.21356 -182.81036 -22.06842 11.35
378.24612 -182.42198 -22.685131 9.3765621
379.27948 -182.14407 -22.319387 11.53542
380.63705 -182.1658 -22.33848 9.2656908
381.32849 -182.1362 -22.716808 11.707657
339.18555 -181.66988 -22.785128 4.96
347.49927 -181.09833 -22.39609 12.20085
348.86194 -180.57599 -22.22261 14.71
376.88828 -181.21277 -22.17313 6.29
378.26654 -180.56793 -22.693382 11.15
379.25607 -180.8313 -22.286709 9.6844473
381.22449 -181.14053 -22.126198 11.11
381.43066 -180.93292 -22.387796 12.115235
341.72516 -179.80402 -22.351173 9.5799999
342.15381 -179.62408 -21.651505 9.5799999
345.53973 -180.07764 -22.172565 7.9899998
346.44168 -179.85796 -22.390532 8.1462059
347.48022 -179.91394 -22.386024 9.0557337
348.83499 -180.09044 -21.781727 10.684999
364.55731 -179.60916 -22.335979 11.660007
377.42505 -180.0397 -22.642307 9.96
378.63242 -179.25139 -22.746876 12.148751
379.68842 -179.75165 -21.852585 7.4683332
380.72165 -180.07513 -22.138443 10.675438
381.5614 -179.73569 -22.175396 10.321733
481.2085 -179.45955 -21.609158 14.13
500.25916 -179.86005 -22.25157 10.3
500.88116 -179.24792 -22.181915 9.3800001
340.43634 -177.99811 -22.060213 7.3000002
341.02097 -178.50928 -22.47052 8.8966675
341.9563 -178.70389 -21.639641 6.9749999
346.19171 -179.00626 -22.360023 6.377882
347.86423 -179.12042 -21.912361 6.8499999
362.74026 -178.52956 -22.243582 11.246666
363.95984 -178.4931 -22.232744 12.2675
365.49731 -178.61142 -22.505707 10.921368
366.12793 -178.52023 -22.507885 11.97
377.79883 -178.35345 -22.535107 9.1599998
378.98312 -178.24574 -22.845087 14.146874
380.50146 -178.86143 -22.593891 11.728217
381.49924 -178.55249 -22.034866 9.6730661
480.8963 -178.57173 -22.411623 13.576001
340.44897 -177.86264 -22.870308 7.154954
341.0083 -177.20108 -22.312731 7.788002
365.48053 -176.86794 -22.395256 11.807501
366.26715 -176.87062 -22.844635 11.272917
378.35205 -177.26488 -22.800529 14.849653
379.08731 -177.50681 -22.093151 15.7775
395.65881 -176.67627 -22.435425 7.8899999
479.96768 -177.66908 -21.872509 9.3800001
480.79993 -177.85605 -21.889158 14.09
482.45087 -176.74072 -22.846746 12.07
366.36868 -175.71198 -22.502453 11.450964
380.86621 -175.65036 -22.531038 15.37
395.08508 -176.02664 -22.037392 9.1199999
395.71799 -176.53751 -21.814011 7.8899999
337.19568 -174.68692 -22.807167 9.5819302
338.56635 -174.48486 -22.054369 8.7638502
341.74673 -175.05118 -22.791677 14.535
342.19177 -174.88907 -22.452496 13.326743
359.47229 -174.52798 -22.851774 8.521039
365.58124 -175.24617 -22.152111 8.8199997
368.01889 -174.6322 -22.042433 11.165465
380.07889 -175.26253 -22.667795 14.38
395.87155 -174.80164 -22.115372 8.4953575
396.99075 -174.69891 -22.463535 9.8741455
340.38477 -173.01651 -22.557014 9.9220409
341.49258 -173.59575 -22.473059 13.788096
342.45886 -173.24152 -22.080711 8.4875679
395.96259 -173.42883 -22.223217 12.379999
396.77637 -172.97797 -22.411968 10.424095
334.90674 -172.55045 -22.830694 10.86662
339.71683 -172.10309 -22.313583 12.051661
341.50919 -171.86548 -22.045067 9.3749886
342.60474 -172.40048 -22.408854 8.1178122
367.42468 -171.58817 -22.132454 7.9899998
382.98138 -172.16039 -22.786026 8.654377
395.72519 -172.43681 -22.458776 10.87125
396.7157 -171.85385 -22.260281 10.774536
333.80618 -170.94247 -22.81683 10.165625
335.1019 -171.03833 -22.501192 11.161256
340.47937 -171.16772 -22.851835 10.345634
341.68295 -170.9137 -21.700104 8.8633337
341.91571 -170.90805 -22.002111 6.9499998
360.38574 -170.89584 -22.18725 9.2304554
367.03653 -171.23486 -21.715803 7.9200001
367.62714 -170.99869 -22.245396 8.0187626
383.32245 -170.85678 -22.489542 9.2999859
395.82019 -170.78467 -22.632044 13.389961
396.74359 -170.71297 -21.657963 10.279888
334.8999 -169.54095 -22.268419 9.6372747
338.5094 -169.20206 -22.866846 12.76827
339.97467 -169.77835 -22.250366 13.44
363.60156 -169.04559 -22.738394 7.8299999
367.10068 -169.95036 -21.662695 10.8135
367.36121 -169.2897 -22.294218 8.8100004
383.20108 -170.07381 -22.52062 9.2700005
394.84732 -169.61455 -21.620543 6.9499998
395.84079 -169.79913 -22.224863 9.5961962
397.3486 -169.51184 -22.790909 13.87
337.64801 -168.58989 -22.301773 9.8024998
338.45874 -168.39342 -21.739494 11.695606
339.67163 -168.79462 -22.193264 10.717182
369.58679 -168.26033 -22.568802 8.416666
370.14709 -168.56985 -22.37957 12.035724
371.39624 -168.1991 -22.325981 11.85
395.76968 -168.16394 -22.40378 9.0811262
397.13821 -168.42763 -21.934742 10.582098
337.60931 -167.68381 -22.525343 9.0787487
338.44455 -167.73517 -22.556221 11.091005
370.27338 -167.02982 -22.319126 8.902812
370.03055 -166.24655 -22.537071 7.1999993
365.7627 -162.92291 -22.262903 11.870877
366.7955 -163.48453 -22.370417 9.664753
345.16724 -160.8038 -22.801334 7.5300002
380.62952 -160.38637 -22.746323 7.6049995
381.30771 -160.48254 -22.042923 10.665
380.72223 -159.25897 -22.498051 10.486956
381.78656 -159.41058 -22.230883 8.3760414
382.80612 -159.71262 -22.507374 5.79
341.39078 -157.6944 -22.593697 14.235815
342.75177 -157.82306 -22.298506 8.9258442
379.69809 -157.91498 -22.237583 10.758442
380.67496 -158.29007 -22.15992 9.5338402
381.70306 -158.28262 -22.15732 9.1435156
341.19742 -156.991 -22.252165 10.840251
342.57864 -157.27756 -22.363066 11.321548
379.90808 -156.79158 -22.66733 9.8718977
380.72601 -156.95058 -22.205231 9.6739025
381.5592 -156.9949 -22.183594 9.6541824
340.38818 -156.04993 -22.723093 8.7988892
341.49094 -155.96606 -22.27829 7.320384
347.23346 -155.77469 -22.799488 8.21
380.36951 -155.63338 -22.263638 7.122159
381.42313 -156.0636 -22.582697 8.4099998
380.75269 -154.90533 -21.651264 6.3299999
335.06241 -153.24068 -22.181 10.69889
343.85864 -153.52145 -21.901253 10.079584
334.89563 -151.88312 -22.805099 9.2885666
335.84207 -151.69141 -22.200089 8.4935417
317.37683 -150.09106 -21.605461 9.4283333
334.76755 -151.15401 -22.363558 6.6149998
336.04495 -150.64342 -22.423304 9.4399977
341.5759 -150.56615 -22.83824 6.9291472
342.54385 -150.81442 -22.80661 6.9012928
331.37796 -149.00671 -21.849781 8.96
334.8465 -149.49953 -22.621813 8.3523693
336.18082 -149.20987 -22.047287 13.056183
337.80402 -149.75789 -22.113285 8.1400003
338.47687 -149.31033 -22.479198 8.1300001
380.69067 -148.69154 -22.714556 8.9300003
382.03073 -149.04135 -22.156013 6.8375001
383.0083 -148.80521 -22.82481 8.7622528
417.06427 -149.09601 -21.912884 7.3899999
332.34424 -148.59326 -21.869118 6.3599997
335.12766 -148.32516 -22.094351 12.065468
336.17636 -147.64906 -22.129602 9.5600004
338.78961 -148.22217 -22.690205 8.613451
380.82349 -148.17201 -22.320265 8.9300003
381.65436 -148.15067 -22.699848 9.0934324
414.16953 -147.52097 -22.242754 13.309999
310.66684 -146.76067 -22.662905 9.9864845
312.56192 -146.69327 -22.469257 6.9231253
331.5119 -146.51901 -21.746941 7.3312502
331.74304 -146.1705 -22.540806 6
334.00943 -146.73285 -22.335115 10.992513
334.88507 -147.04156 -22.076912 9.3199997
336.685 -146.92557 -22.645 11.913476
340.44742 -146.82198 -22.851492 6.7878585
382.43033 -146.21327 -22.694557 11.28
414.07748 -146.98262 -21.85743 9.2333336
415.19318 -147.30598 -22.094479 10.15
417.37582 -147.03667 -21.968981 7.603333
312.22226 -145.54288 -22.348057 9.5755272
312.87695 -145.54312 -22.375778 10.014056
329.42245 -144.99925 -22.52632 6.6799998
330.55676 -145.40367 -22.385805 7.6829548
332.31171 -145.29633 -22.309959 8.9354324
333.15698 -145.73602 -22.268635 11.099893
335.16104 -145.55624 -22.153067 13.403618
336.08398 -146.06293 -21.863989 15.745854
337.27509 -145.71167 -22.397398 14.466166
338.25342 -145.50339 -22.66124 13.428482
376.13397 -145.17886 -22.486292 5.54
376.92938 -145.54681 -22.275188 6.6599998
377.69635 -145.89766 -22.594852 7.3499999
381.57532 -145.81882 -22.799908 10.86
413.99335 -145.48669 -21.709873 13.75
414.96231 -145.20554 -22.769569 8.6896877
417.38635 -146.01117 -22.139359 7.3899999
310.90457 -144.39989 -22.285219 8.4241333
312.09525 -144.46103 -21.996017 9.4160442
313.36673 -144.82678 -22.464499 11.36
329.82312 -144.04604 -22.211655 7.7890153
331.09753 -144.71513 -22.329678 7.7346096
332.25702 -143.94281 -22.321796 10.044952
333.54974 -144.11658 -22.26038 8.5342035
334.6431 -144.40211 -22.361837 10.852333
371.58749 -143.86191 -22.717197 11.85
373.02975 -144.29028 -22.404337 11.78
376.95013 -144.5181 -22.173069 6.0999999
377.83035 -144.83479 -22.656755 7.1200004
380.60611 -144.26639 -22.812496 10.035
381.76425 -144.38962 -22.469807 9.1902142
413.7464 -144.06612 -21.680939 13.5
415.20374 -144.54613 -21.7911 9.9049997
308.13486 -143.27078 -22.330126 7.8027081
309.44333 -143.13049 -22.717024 6.8099999
329.95569 -142.96045 -22.56646 11.198125
331.32773 -143.56262 -21.755293 8.9121008
332.02924 -142.85828 -22.410652 11.010581
333.15955 -142.92822 -22.245625 13.392212
335.0282 -143.09642 -22.160686 8.9749107
335.84433 -142.70464 -22.747803 12.7
337.5267 -142.80144 -22.401524 14.638638
338.82532 -142.91058 -21.98201 8.3500004
371.62454 -142.42212 -21.925152 11.430077
373.23209 -142.76106 -22.358437 11.78
377.65036 -142.7231 -22.689407 11.18
381.76904 -142.52222 -22.859539 7.4179063
326.1647 -141.54285 -22.388632 13.100416
327.065 -141.27046 -22.157106 11.35
329.32364 -141.88168 -22.305233 7.4860411
331.09705 -141.66666 -22.301037 10.428602
332.30341 -141.76257 -22.319765 14.471857
333.06949 -141.50508 -22.602297 15.948395
335.10928 -142.20786 -22.061865 10.06
336.33673 -141.85612 -22.408875 12.408019
336.97949 -141.29796 -21.682449 8.5799999
340.48453 -141.66545 -22.672579 14.022338
340.76178 -142.18893 -22.106848 14.5075
342.83875 -141.7323 -22.144642 10.689014
370.81348 -142.24435 -22.660715 11.310001
377.02148 -142.10754 -22.206724 9.1499996
377.81879 -141.58875 -22.253506 10.66658
379.05624 -141.88185 -22.230635 11.915001
380.51984 -141.80469 -22.357384 9.7905731
381.54321 -141.77586 -22.230217 13.090171
325.07361 -140.06042 -22.214012 12.593159
325.828 -140.34689 -21.776299 8.3563881
327.13611 -140.50308 -22.410229 10.16724
328.21967 -140.73741 -22.288643 9.176569
329.69409 -140.82199 -21.700409 10.24555
330.4418 -140.68275 -22.755651 15.134403
332.65381 -140.17801 -22.089428 10.13625
333.039 -140.08438 -21.627047 10.6
338.01758 -140.47278 -22.420067 14.641875
338.24442 -140.19156 -22.299778 12.726719
342.84821 -140.50598 -22.177227 10.129
343.55191 -139.83687 -22.550529 13.497311
344.70639 -139.95766 -22.323614 12.532812
375.02094 -140.1077 -21.801014 8.5500002
376.73288 -139.84973 -22.598644 10.848333
377.9129 -140.32849 -22.859236 11.031371
379.10703 -140.73384 -22.456034 13.401052
380.8945 -139.79546 -21.959873 11.494181
381.49414 -140.5386 -22.693928 5.8200002
323.5979 -138.96602 -22.524252 10.133903
324.24261 -139.56418 -21.981552 10.997397
325.92917 -139.71657 -22.631279 10.5
327.78076 -139.01863 -21.94961 16.459999
328.34506 -138.99873 -22.367666 9.9024153
330.36679 -138.65724 -22.087423 10.0675
330.98834 -138.72926 -22.280663 7.8066669
332.59552 -139.07512 -21.940899 9.4724913
336.06006 -139.02608 -22.172962 7.8186302
337.46109 -139.02946 -22.06813 11.890357
338.61877 -139.29359 -22.282764 14.40451
339.66779 -139.7532 -21.62487 14.245596
341.36108 -139.20914 -22.25172 11.139921
342.19952 -139.41771 -22.721109 13.216427
343.39331 -138.9409 -22.190521 11.902794
344.95596 -138.81282 -22.44721 11.877828
373.69318 -138.6734 -22.090797 11.695
375.74435 -139.23654 -22.183466 11.189008
376.64908 -139.09146 -22.18601 11.871434
377.83939 -138.52449 -21.768715 8.6483431
378.96954 -139.1857 -22.217321 10.157619
380.79004 -139.35358 -22.66634 12.033201
319.74823 -137.66519 -22.218887 10.21
322.41556 -137.7377 -22.214954 16.010143
323.11823 -137.74202 -21.928761 10.350903
324.69272 -137.70804 -22.217606 7.5217714
327.66806 -137.41144 -22.588068 6.6100001
329.11176 -137.94992 -21.627411 10.26
329.64127 -137.61838 -22.84144 10.085269
330.59036 -137.93341 -22.248116 10.213854
332.10678 -137.87274 -22.657358 6.7338276
336.75873 -138.00716 -22.828836 9.724906
338.57483 -137.79028 -22.402754 8.4770813
339.92841 -137.65984 -22.323717 12.734174
341.45917 -138.12067 -22.290203 13.642487
342.15451 -137.51593 -22.233383 12.716131
343.40479 -137.2715 -22.320145 13.702941
345.34695 -137.7196 -22.171808 9.8379297
346.38748 -138.07983 -22.433651 7.5900002
350.4953 -137.25212 -21.864866 7.972815
350.94006 -137.25761 -22.769964 8.068408
373.57471 -137.69885 -21.823627 10.858072
374.4696 -137.84007 -22.448381 11.59903
375.89484 -137.94632 -22.698742 10.590231
377.31042 -137.26588 -21.86672 13.731736
377.90524 -137.90483 -22.698423 11.997735
379.2887 -137.59909 -22.142654 12.352261
380.82019 -137.98694 -22.431864 14.78
319.66254 -136.62976 -22.27191 10.176324
323.17599 -137.03088 -22.845272 8.4116287
324.92337 -136.71059 -22.416048 12.810791
327.38281 -136.909 -22.255678 8.824996
328.58276 -137.16251 -22.793093 9.8525
329.93311 -136.44542 -22.262926 7.7049894
331.15298 -136.92923 -22.869732 5.9899998
332.67865 -136.81136 -22.365952 7.9599314
339.08609 -136.69313 -21.770477 9.2914085
341.67102 -136.823 -22.311142 13.487581
342.77072 -136.59364 -21.986782 13.771674
343.42468 -136.65176 -21.640799 11.98005
344.85147 -136.61037 -22.508467 11.398838
346.23077 -136.88626 -22.46867 12.619076
351.5643 -136.35034 -22.263226 9.8629789
370.91925 -136.3674 -21.696529 13.102501
371.31088 -136.34125 -22.829048 9.8150005
373.09467 -136.87015 -22.740273 12.513333
374.40912 -136.47037 -22.29954 10.911641
375.48438 -136.69798 -22.764244 12.455107
376.59842 -137.13785 -22.165573 13.985001
378.33649 -136.80161 -22.709267 14.18692
380.72369 -136.44067 -22.381155 12.607344
383.69421 -136.83911 -21.838188 6.9250002
321.36548 -135.06168 -21.809628 8.4499998
323.49683 -134.95555 -22.739515 9.8200178
324.96997 -135.3537 -22.142174 13.265428
326.05887 -135.45039 -22.037867 10.959292
343.47031 -135.47823 -22.013168 12.637126
