# .PCD v0.7 - Point Cloud Data file format
VERSION 0.7
FIELDS x y z intensity
SIZE 4 4 4 4
TYPE F F F F
COUNT 1 1 1 1
WIDTH 1199
HEIGHT 1
VIEWPOINT 0 0 0 1 0 0 0
POINTS 1199
DATA ascii
19.406364 -28.467274 -0.9306463 7.4000001
19.636175 -28.53891 -0.83426303 9.6999998
44.946178 -28.527481 -0.92006612 6.4000001
14.816017 -28.409666 -0.8335551 11.9
16.618212 -28.261595 -0.84597415 12.25
16.760626 -28.397976 -0.83907008 13
18.542459 -28.320757 -0.82474232 0
30.754856 -28.370909 -0.84610081 10
13.154629 -28.104576 -0.82300508 16.9
13.441276 -28.136261 -0.79448271 12
13.538313 -28.227615 -0.92534852 9.6999998
15.075382 -28.16618 -0.94106698 6.4000001
16.738285 -28.238085 -0.90350163 15.1
17.120602 -28.1978 -0.90895438 16.700001
17.162558 -28.145632 -0.84351015 11.2
18.370476 -28.157562 -0.93097526 8.8000002
16.187206 -27.993477 -0.94058383 10.1
13.296057 -27.791519 -0.81240648 13.4
13.345452 -27.906279 -0.80441582 7.3000002
13.637817 -27.86655 -0.89068419 12.4
14.449556 -27.84445 -0.83854467 14
15.174927 -27.826063 -0.8269071 10.7
16.019606 -27.92808 -0.87300181 12.9
16.284599 -27.877945 -0.82687372 7.6999998
16.875063 -27.922695 -0.84270561 7.1999998
17.009743 -27.874491 -0.93812263 11
17.342821 -27.891003 -0.8845017 10.2
17.6063 -27.802595 -0.90217495 7.9000001
17.853247 -27.874983 -0.90553927 13.75
31.90852 -27.840614 -0.84176338 9.3000002
37.79966 -27.805775 -0.8379209 17.299999
15.945631 -27.771072 -0.827775 0
16.385788 -27.68399 -0.9357807 7.3000002
17.555927 -27.629581 -0.81886804 16.9
17.829315 -27.722319 -0.82919866 8.8000002
19.529932 -27.735481 -0.7979151 10
15.483353 -27.57262 -0.89751387 10.549999
16.573261 -27.567104 -0.79807401 9.1999998
37.039333 -27.574177 -0.92753494 8.8000002
15.374455 -27.395374 -0.81260049 14.3
15.737979 -27.440865 -0.7973547 8.3999996
16.078331 -27.358717 -0.93851388 7.3000002
34.226059 -27.460972 -0.94416571 10.75
37.127304 -27.340513 -0.91446322 12.1
36.573002 -27.215382 -0.90708101 7.8000002
36.811707 -27.266941 -0.89080024 8.8000002
39.147827 -27.198555 -0.91910756 16.299999
17.587387 -27.126415 -0.83821225 7.6999998
17.998764 -27.104357 -0.85495651 10.8
16.848717 -26.837515 -0.82988298 6.0999999
23.9939 -26.897671 -0.8580426 11
35.183949 -26.917259 -0.84556979 9.5
36.902351 -26.896715 -0.85446936 21.200001
37.164944 -26.843876 -0.84866333 9
39.378643 -26.842058 -0.84349358 0
17.666533 -26.731422 -0.87891662 8.6000004
37.568855 -26.80607 -0.84251297 8.5
37.999363 -26.690493 -0.90722382 0
39.169727 -26.398643 -0.81331104 18.6
37.417027 -26.3305 -0.87100416 7.9000001
35.392963 -25.993807 -0.80397773 17
18.507851 -25.758041 -0.80714238 11.9
18.208788 -25.641392 -0.93321532 9.6000004
41.341953 -25.615459 -0.94078463 14
15.585763 -25.461445 -0.93724847 12.7
18.475634 -25.504526 -0.83460087 10.2
42.741032 -25.501884 -0.91787291 10.1
18.367622 -25.333187 -0.88111985 8.6000004
36.195625 -25.304865 -0.94143075 8
40.074402 -25.332722 -0.85554487 9.8000002
18.211205 -25.160236 -0.87478673 16.700001
18.292217 -25.09972 -0.88851643 7.8000002
30.60461 -25.151049 -0.92089689 11.2
15.294401 -25.056686 -0.84084398 6.0999999
16.044167 -24.94043 -0.81883293 12.6
36.41769 -25.047195 -0.80842721 9.1000004
19.976347 -24.837511 -0.82269794 6.6999998
36.899612 -24.8598 -0.89478856 18.4
36.946377 -24.706261 -0.80126959 10.7
42.6805 -24.681335 -0.92393243 16.1
16.286026 -24.488695 -0.80434388 12.3
16.494675 -24.463993 -0.8963958 9.5
16.916397 -24.460529 -0.86661834 10.15
16.439299 -24.386225 -0.88981742 12.85
16.697912 -24.380827 -0.84347057 11.6
17.21077 -24.202265 -0.89428723 15.7
53.441986 -24.279202 -0.79824638 7.0999999
1.2485871 -24.082476 -0.80921096 9.6999998
1.7756371 -24.010742 -0.93688059 0
16.599991 -24.080526 -0.93861306 11.6
16.745144 -24.109711 -0.80635214 6.1999998
16.906593 -24.087711 -0.9230271 12.5
36.987339 -24.006847 -0.89897859 7.5
40.830498 -24.11297 -0.85625923 15.1
17.25766 -23.891766 -0.81999749 9.6000004
30.584694 -23.843792 -0.84099269 12.3
44.556381 -23.836775 -0.94895685 14.1
16.683681 -23.74579 -0.8271293 7.0999999
16.980915 -23.757572 -0.83864421 8.7000008
16.905581 -23.634579 -0.7952342 7.6499996
17.003157 -23.615242 -0.91928637 6
23.881851 -23.636492 -0.84705186 11.6
24.100676 -23.647169 -0.87554896 9.6000004
28.594433 -23.639906 -0.89542687 9.8999996
34.479267 -23.551844 -0.90190351 17.200001
42.825512 -23.533905 -0.81882042 8.5
0.10089684 -23.408386 -0.82679158 14.8
2.177588 -23.378143 -0.9081744 11.4
16.595703 -23.429028 -0.83839196 12.4
16.969572 -23.430292 -0.94863415 12
24.488585 -23.484467 -0.83943832 11.2
39.932995 -23.400215 -0.839818 7
41.857422 -23.411758 -0.81907904 10.4
42.136368 -23.436777 -0.84034997 9.3000002
44.869846 -23.394392 -0.92135435 15.9
23.655172 -23.246729 -0.80600774 6
25.41049 -23.274853 -0.87784016 7.9000001
30.133261 -23.213615 -0.85831022 9.5
35.028965 -23.27776 -0.84969246 25.200001
43.170341 -23.219683 -0.92440093 6.5999999
44.053658 -23.255816 -0.866301 7.8000002
44.173977 -23.238628 -0.85369301 13.8
44.453575 -23.336319 -0.82607359 13
17.050632 -23.13731 -0.83816051 13.5
24.659855 -23.1217 -0.86710465 7.9000001
36.46489 -23.123741 -0.90036464 16.1
39.681183 -23.078863 -0.94067603 9
39.932129 -23.067104 -0.81041098 8.5
40.026203 -23.11739 -0.85996491 17.299999
41.136208 -23.036003 -0.8066597 8.8000002
41.802525 -23.111687 -0.93692791 12.7
41.968479 -23.051622 -0.87325889 8.3999996
42.19212 -23.08061 -0.92866921 12.7
43.429901 -23.101517 -0.80032659 7
43.747482 -23.094868 -0.80316919 8.6000004
44.992168 -23.106995 -0.8052448 13.4
46.613842 -23.141361 -0.84724271 13.8
24.565689 -22.899349 -0.81354117 0
32.164032 -22.883131 -0.85588682 22.299999
33.75499 -22.994287 -0.85894895 23.4
34.130821 -22.862679 -0.82997513 12.7
39.576817 -22.94216 -0.90021569 10.1
39.788788 -22.947041 -0.8368175 14.275001
40.782368 -22.995684 -0.83705336 9.3999996
43.406353 -22.986233 -0.81557554 7.8000002
49.101227 -22.903944 -0.84912902 10.3
49.354912 -22.997171 -0.89048529 7.6999998
24.438753 -22.787098 -0.92083669 9.3000002
24.77396 -22.81102 -0.79878652 7.4000001
30.184311 -22.758486 -0.86650133 8.5
33.563942 -22.855286 -0.88352644 13.2
34.09428 -22.782719 -0.89036036 9.6000004
34.238113 -22.794094 -0.89370465 10.55
40.080223 -22.746864 -0.90132082 7.6999998
40.499062 -22.752693 -0.85429502 10.7
41.211063 -22.761742 -0.84583855 14.55
41.337543 -22.83605 -0.81603777 6.4000001
43.775452 -22.857685 -0.79444087 6.4000001
44.301636 -22.739197 -0.79799139 9.1999998
50.675598 -22.776749 -0.90188372 17.799999
12.090103 -22.653473 -0.88549942 6.1999998
23.792622 -22.700912 -0.87957215 0
24.690594 -22.68651 -0.80861199 8
27.040737 -22.598524 -0.80476427 8.6000004
27.78694 -22.574192 -0.82547235 15.3
29.543877 -22.554117 -0.86510384 11.2
30.364941 -22.590065 -0.93863618 9
30.632494 -22.575132 -0.80675721 18.200001
30.797235 -22.627901 -0.79972291 15.7
31.837994 -22.653685 -0.92378485 15.7
33.805153 -22.675112 -0.89711225 15.6
34.553642 -22.55629 -0.84946698 10.950001
36.305641 -22.570206 -0.88864982 19.1
36.483547 -22.63982 -0.86381447 13.3
36.540276 -22.588377 -0.85063672 9.3000002
37.78669 -22.550642 -0.93494153 7.6999998
39.869087 -22.600698 -0.87455797 9.6999998
40.059753 -22.606258 -0.90263236 10.4
40.267231 -22.621231 -0.87697601 11.2
41.474998 -22.601494 -0.83468747 22.9
41.958706 -22.624302 -0.79642117 12
42.22723 -22.566685 -0.89463007 10.5
43.007923 -22.555553 -0.95153487 12.6
43.105526 -22.65008 -0.83788049 7.1999998
45.038155 -22.604767 -0.80133295 7.6999998
-1.4029779 -22.499956 -0.88693333 9.3000002
8.0823841 -22.494869 -0.8110128 9.1000004
24.638474 -22.386932 -0.90010083 6.3000002
24.988644 -22.457914 -0.86602044 9.1999998
26.740137 -22.533096 -0.95074391 10.2
30.58345 -22.493223 -0.89004606 13.5
31.850819 -22.428751 -0.87599778 11.4
32.481861 -22.494873 -0.90025777 15.4
32.735229 -22.429466 -0.94456297 6
33.775303 -22.474068 -0.85595882 8.6000004
34.246964 -22.489969 -0.93054593 13.549999
34.770439 -22.399406 -0.84971726 16.9
36.362431 -22.478952 -0.80803019 7.4000001
36.671902 -22.45088 -0.91675091 9
37.066566 -22.449177 -0.86767888 11.35
38.036797 -22.450092 -0.92114013 13
39.794395 -22.477737 -0.83437532 9.3000002
39.938576 -22.428679 -0.94479501 17.4
40.384388 -22.523569 -0.80914563 10.8
40.552731 -22.483116 -0.89697075 8.3999996
40.766628 -22.403891 -0.88641316 12.5
41.369732 -22.52961 -0.81534433 7.4000001
41.937569 -22.499802 -0.80029315 12
42.341305 -22.406828 -0.93271232 10.4
43.11697 -22.420856 -0.81584138 12
44.10738 -22.398254 -0.91287386 13.5
44.291489 -22.521357 -0.80104929 13.2
46.720436 -22.40753 -0.81420863 12.3
8.0120058 -22.280302 -0.91547525 6.5999999
24.677471 -22.25914 -0.87779999 12.375
25.098881 -22.333048 -0.80700374 10.4
30.317072 -22.301693 -0.8782016 7.1999998
32.543819 -22.362101 -0.83040166 10.1
32.645073 -22.3717 -0.93934226 10.7
33.067341 -22.36426 -0.87419355 10.8
33.648769 -22.289726 -0.8157478 17.6
34.031441 -22.349331 -0.87565684 15.3
34.207863 -22.251156 -0.90128863 13.75
34.332569 -22.351053 -0.89446229 8
36.435558 -22.359573 -0.82796085 7.5999999
36.549782 -22.344007 -0.9406817 15.85
36.807484 -22.361355 -0.93996221 8.75
37.199627 -22.381254 -0.91096354 7.6999998
37.640404 -22.331041 -0.8322506 15.2
40.007236 -22.334742 -0.92022532 8.8000002
40.245071 -22.275051 -0.89936638 11.925
40.774609 -22.283068 -0.92622066 9.8999996
40.960411 -22.2918 -0.83340359 9
43.315353 -22.298481 -0.88258082 9.1999998
43.647411 -22.362429 -0.80766392 12.9
43.793793 -22.276642 -0.83981097 12.5
43.958115 -22.248543 -0.94636434 13.475
43.998589 -22.272285 -0.83812118 14.1
44.527893 -22.295837 -0.8202883 18.799999
44.695229 -22.350292 -0.92744982 8.8000002
54.129021 -22.25559 -0.88974702 8
23.896984 -22.103802 -0.79940867 12.8
24.432394 -22.184624 -0.94710976 13.9
26.635281 -22.094097 -0.89051068 9.3000002
27.772715 -22.149635 -0.88350427 9.6999998
28.084755 -22.164991 -0.89110231 10.5
34.217731 -22.089867 -0.83310378 12.7
35.465767 -22.132025 -0.91567516 24.700001
36.268295 -22.132954 -0.83950657 13.4
36.631523 -22.135822 -0.90522993 16.9
39.817131 -22.177523 -0.93292183 12.05
40.122135 -22.1649 -0.85828173 8.8999996
40.343639 -22.15377 -0.932616 16.9
40.54438 -22.088814 -0.87942296 8.8000002
40.889591 -22.188965 -0.85335714 10.5
43.282478 -22.069801 -0.90933818 10.3
43.877815 -22.218327 -0.83755147 11.7
44.22657 -22.197948 -0.83024287 9.3000002
44.756264 -22.194778 -0.86235738 7.6999998
17.256529 -21.945166 -0.94754821 15.7
17.628252 -22.02372 -0.88276458 6
24.940876 -22.039076 -0.81256497 8.1000004
28.010458 -21.963406 -0.81508487 11.35
28.230566 -22.057453 -0.9466753 8.5
28.622704 -21.96723 -0.94568181 10.6
34.198616 -22.00629 -0.83516014 11.125
34.371513 -22.040516 -0.8860234 9.5
34.614521 -21.968563 -0.87945944 8.1999998
36.451771 -21.984894 -0.86815184 13.833333
36.747131 -22.021566 -0.89493036 10
38.740299 -21.932837 -0.83639193 6.0999999
39.024723 -21.913574 -0.83781654 11
39.710766 -21.972046 -0.95057964 15.1
40.725677 -22.025551 -0.8989234 10.35
43.887245 -22.004536 -0.80834198 11.8
44.219814 -21.979858 -0.92935532 9
48.669209 -22.012959 -0.92755318 6.0999999
50.344688 -22.060715 -0.80963504 13.5
17.057079 -21.755028 -0.92332387 8.1000004
17.29199 -21.836723 -0.83648044 14.166667
17.36898 -21.81064 -0.85698354 12.887501
17.72863 -21.85627 -0.94814837 7.5
25.768562 -21.907684 -0.93447495 7.4000001
26.22509 -21.87051 -0.91635001 11.5
26.869888 -21.836987 -0.85842061 10
27.881302 -21.882833 -0.88967478 12.1
31.388126 -21.792387 -0.82899797 11.3
34.618126 -21.866573 -0.93666363 19.1
36.563862 -21.818449 -0.86944103 11.083333
36.729458 -21.880936 -0.87203538 13.85
38.326111 -21.89142 -0.94916713 19.9
39.660545 -21.850014 -0.94245613 12.8
39.898407 -21.824551 -0.82697415 10.65
41.357002 -21.819221 -0.83667761 16.799999
43.513863 -21.751629 -0.8426168 6.9000001
44.234177 -21.7901 -0.87576997 7.1999998
44.753895 -21.853935 -0.85104454 6
45.067467 -21.86274 -0.83079374 14.950001
9.1736107 -21.607548 -0.91128731 12.7
16.904432 -21.663944 -0.86948252 16.700001
17.036726 -21.648663 -0.93126494 20.75
17.233595 -21.6663 -0.91029018 13.425
23.976463 -21.605953 -0.87680781 10.4
24.713945 -21.709723 -0.90612179 14.2
24.814053 -21.740322 -0.82749426 7.4000001
24.963863 -21.612999 -0.91640496 15.5
25.210327 -21.612545 -0.83352453 12.7
26.554651 -21.707708 -0.95211303 11.55
27.780664 -21.687553 -0.95006466 12.4
28.348045 -21.639046 -0.91171122 7.5
28.627079 -21.730024 -0.84460378 12.5
34.245293 -21.702862 -0.84593219 11.9
34.434521 -21.672743 -0.79854506 15.7
34.545223 -21.685631 -0.94648522 13.7
34.709328 -21.683821 -0.89861226 11.3
36.306545 -21.711542 -0.81049812 6.6999998
36.504494 -21.593081 -0.84688234 9.8000002
36.627068 -21.597515 -0.81555891 10.75
36.708313 -21.70446 -0.82877815 16
36.922478 -21.615887 -0.84183735 8.1000004
37.002842 -21.739561 -0.79705513 9.1000004
38.892643 -21.705091 -0.91336173 8.1999998
39.714386 -21.714916 -0.79795587 14.2
39.887188 -21.748423 -0.7941767 15.125
40.083321 -21.674465 -0.85730582 6.3500004
40.882023 -21.646267 -0.81326532 9
43.266174 -21.65855 -0.86778116 8.1000004
44.191807 -21.656229 -0.94287705 20.700001
44.417492 -21.603041 -0.92844957 12.95
44.573921 -21.699553 -0.82391727 12.1
45.058914 -21.611597 -0.79995441 10.799999
45.116955 -21.65494 -0.80106074 6.8000002
53.124203 -21.730997 -0.80089915 8
12.378221 -21.532476 -0.94834316 15.6
13.620189 -21.527445 -0.92953944 11.1
16.446142 -21.577942 -0.88218272 10.8
16.861929 -21.475609 -0.85780263 10.1
17.039852 -21.467979 -0.80194521 13.55
17.196524 -21.545549 -0.91432428 25.700001
17.372643 -21.490704 -0.83414352 29.450001
17.517548 -21.513824 -0.89969695 13.799999
17.818304 -21.509205 -0.9477253 8.8999996
23.436295 -21.459145 -0.95103663 10.5
26.557161 -21.519691 -0.85974795 10.5
26.714184 -21.539429 -0.9092561 10.25
26.887764 -21.509003 -0.85198689 6.5
27.664785 -21.460236 -0.94022524 15.2
27.997833 -21.530716 -0.8335979 13.8
28.340837 -21.489515 -0.87059247 14.8
29.096975 -21.578732 -0.87392366 11.5
29.934353 -21.560087 -0.93495643 9.5
32.156605 -21.499477 -0.82791924 12.9
34.021931 -21.575108 -0.92311591 10.3
34.268501 -21.462246 -0.85050416 10.1375
34.414677 -21.470688 -0.93075383 12.2
34.475151 -21.560001 -0.85858566 12.450001
36.612129 -21.504471 -0.92018986 7.8000002
36.764179 -21.522079 -0.87710589 16.361113
37.120975 -21.527426 -0.80150533 8.8000002
39.262051 -21.446598 -0.8913697 10.1
39.750813 -21.453588 -0.83945078 7.4000001
40.055851 -21.48127 -0.82496548 9
40.274899 -21.484341 -0.81542957 18.299999
40.436176 -21.48432 -0.93466747 8.1000004
40.688728 -21.468388 -0.8835752 14.05
41.350189 -21.489878 -0.84951848 12
43.832035 -21.560299 -0.84899414 8.8000002
44.217125 -21.473759 -0.88162416 16.299999
44.383732 -21.444824 -0.87878156 11.299999
44.476646 -21.587032 -0.84871507 8.3000002
44.661633 -21.525827 -0.91825277 6.8000002
44.772259 -21.551981 -0.91239738 14.5
44.958652 -21.445536 -0.87802035 8.7250004
45.408833 -21.442122 -0.80535007 22.6
46.133419 -21.496851 -0.95216227 10.6
52.384491 -21.537411 -0.89225543 6.4000001
52.726807 -21.440926 -0.89313775 18
0.063831329 -21.291996 -0.83784139 0
9.5004616 -21.328199 -0.92405915 9.5
11.881798 -21.34627 -0.9254961 7
13.204825 -21.374598 -0.83146465 15.3
14.501797 -21.343599 -0.87580717 11.8
16.946796 -21.416039 -0.92910647 7
17.103981 -21.289623 -0.84706318 13.950001
17.217421 -21.299934 -0.8188749 30.5
23.319805 -21.3463 -0.8762933 11.7
24.591091 -21.393543 -0.85847694 13.1
24.772675 -21.350761 -0.90589988 9.5
25.047407 -21.42804 -0.92233044 15.1
25.420206 -21.416805 -0.85020828 8.6000004
26.421917 -21.341583 -0.92261648 7.4000001
26.846207 -21.354399 -0.91889465 10.1
31.172585 -21.334375 -0.89003915 11.5
34.199371 -21.383404 -0.8864094 10.15
34.391693 -21.328295 -0.83204973 10.75
34.505379 -21.42898 -0.85447776 8.4499998
34.846294 -21.332569 -0.95210767 11.4
36.625889 -21.334206 -0.80846691 16.975
36.738796 -21.418655 -0.82343745 9.8000002
38.531685 -21.365246 -0.85946083 12.450001
38.989407 -21.357542 -0.84662426 17.5
39.540813 -21.31768 -0.90193892 6.0999999
39.720551 -21.349815 -0.84843183 10.3
39.927704 -21.37768 -0.8773163 10.441667
40.173748 -21.410933 -0.81793457 17.1
40.557129 -21.314985 -0.92147768 11.725
40.727486 -21.27537 -0.84060138 8.3999996
40.927338 -21.37241 -0.86103845 10.85
41.037697 -21.346825 -0.92413813 12.7
41.204781 -21.358313 -0.88568944 15.95
43.732346 -21.312241 -0.90730786 6
44.01445 -21.32032 -0.86006403 15
44.392952 -21.365408 -0.94097888 15.5
44.759758 -21.343571 -0.89515138 20.1
45.023201 -21.398954 -0.95101237 9.3000002
45.124767 -21.425835 -0.89926273 10.4
45.296631 -21.390224 -0.91057587 8.1499996
45.484875 -21.361034 -0.8614254 10.5
46.125305 -21.305691 -0.85350096 9.1000004
47.82933 -21.386204 -0.89260805 11.1
0.16518497 -21.218847 -0.83587265 0
14.143114 -21.178406 -0.82778966 6.1999998
17.879511 -21.169863 -0.82786757 14.1
23.58073 -21.265345 -0.87323046 8.3999996
26.296499 -21.132626 -0.84504497 13.1
26.508717 -21.233521 -0.7958203 9.5
26.598265 -21.207272 -0.89624119 11.6
26.716696 -21.255232 -0.89960027 11.1
27.059975 -21.180365 -0.93359751 13.5
34.196098 -21.256395 -0.90669298 11.85
34.367912 -21.189201 -0.94912374 7.9749999
34.628777 -21.197048 -0.92782998 7.9000001
36.12328 -21.179148 -0.87900692 8.1000004
36.449257 -21.181484 -0.89455199 15.8
36.578331 -21.240061 -0.79987907 10.175
36.794189 -21.218197 -0.88960981 10.71875
38.767899 -21.262724 -0.94485933 7.5
39.408665 -21.191912 -0.899997 9.8000002
39.763123 -21.159359 -0.89553607 8.1833334
39.932236 -21.266132 -0.85736239 14
40.266541 -21.205215 -0.82514173 9.5666666
40.475315 -21.204014 -0.83252072 9.1499996
40.972321 -21.225658 -0.93987048 16.35
41.421474 -21.118191 -0.80874944 8.75
43.539776 -21.161957 -0.86245561 7.1999998
44.551189 -21.195801 -0.91733491 6.3000002
44.69976 -21.181847 -0.89765859 16.6
45.001122 -21.176273 -0.91745079 15.7
45.118305 -21.157106 -0.89456952 10.6
10.343408 -20.988295 -0.87569273 7.8000002
10.588308 -21.01483 -0.81318867 6.4000001
10.669561 -21.019787 -0.90670639 9.1999998
11.167762 -21.019173 -0.93349272 10.9
13.06871 -21.060946 -0.82890564 11
14.962614 -21.051573 -0.7998327 6.3000002
23.574169 -20.972424 -0.84925002 9.6999998
23.915955 -21.075882 -0.86769438 11.799999
24.51815 -21.094158 -0.83919203 12.65
25.200697 -20.99004 -0.88755047 7.4000001
30.921547 -20.990612 -0.80147338 21.299999
34.221931 -21.094601 -0.8035773 7.9000001
34.358192 -21.017708 -0.90824813 16.049999
35.129086 -20.990629 -0.80623198 8.8000002
36.411591 -21.033186 -0.87475312 25.1
36.605606 -21.021597 -0.87539804 12.85
36.738396 -21.042385 -0.92150795 14.15
36.860577 -21.090498 -0.93998879 17.5
37.102753 -21.037806 -0.93590146 22.6
38.759724 -21.054844 -0.89255518 6.6999998
38.976864 -21.101576 -0.86398602 11.4
39.596855 -20.970676 -0.88671845 10.225
39.756084 -21.057066 -0.90200722 13.2
39.974548 -21.08247 -0.83324635 10.6
40.361111 -21.048634 -0.89864433 18.1
40.650379 -21.020618 -0.84771925 10.700001
40.93314 -21.009783 -0.86294067 10.700001
41.044224 -21.003967 -0.94299126 6.9000001
41.157761 -21.110245 -0.82919955 10.45
41.366478 -21.093008 -0.89907169 17.15
43.476021 -20.997252 -0.81626248 11
43.799717 -21.112823 -0.84051239 9.8999996
44.174385 -21.089451 -0.85355371 20.1
44.495903 -20.987236 -0.90564865 9.6000004
44.838127 -21.023937 -0.87118101 11.299999
45.183464 -21.006073 -0.86284494 7.75
11.44537 -20.906878 -0.8835299 12.3
12.348097 -20.874311 -0.82828641 14.6
12.486309 -20.922533 -0.81302667 9.6000004
13.083542 -20.830257 -0.93487632 13.3
17.460272 -20.880655 -0.81502646 7.0999999
18.18515 -20.928759 -0.81318843 13.3
23.275566 -20.885876 -0.91565323 14.3
23.342266 -20.931116 -0.83748633 6.5999999
23.835995 -20.924738 -0.82403404 12
24.738707 -20.886351 -0.83842403 6.8000002
26.555828 -20.838881 -0.87583989 8.1000004
27.064005 -20.953918 -0.89210004 12.3
34.285641 -20.923998 -0.86070919 18.799999
34.366566 -20.823164 -0.88789165 12.587501
34.527527 -20.88295 -0.89057422 8.6999998
34.644753 -20.932468 -0.82411778 9.3000002
35.147213 -20.870533 -0.84357476 10.3
36.328369 -20.847626 -0.90748441 7.6499996
36.445736 -20.945499 -0.94159764 13.6
36.60931 -20.816437 -0.8580569 9
36.704807 -20.831236 -0.86577803 17.799999
36.914204 -20.844276 -0.83927441 11.85
37.210289 -20.845282 -0.84770375 8.3000002
39.675423 -20.839962 -0.88762105 8.6999998
39.702415 -20.934345 -0.91531235 12.8
39.980782 -20.834383 -0.87473667 17.799999
40.198166 -20.87714 -0.93545914 16.9
40.54253 -20.883202 -0.85962468 12.075
40.719139 -20.844471 -0.85995519 10.825
40.882122 -20.878199 -0.88303834 9.6333342
41.021717 -20.877455 -0.8663249 12.533333
41.216957 -20.878759 -0.884426 9.3812504
41.364597 -20.899576 -0.79659355 10.4
42.993942 -20.826599 -0.85019296 10.5
43.757759 -20.914799 -0.85125816 13.200001
44.116329 -20.935219 -0.79690838 21.6
44.655457 -20.923447 -0.94198453 7.8000002
45.414188 -20.917704 -0.79860193 12.8
46.84494 -20.950125 -0.86453593 8.6999998
2.23314 -20.699488 -0.803707 13.6
6.3176141 -20.793556 -0.8138985 13.4
9.6514244 -20.749805 -0.88469207 8.1000004
12.65722 -20.716721 -0.80633664 0
18.708582 -20.761343 -0.94540381 6.0999999
23.028866 -20.734938 -0.84339786 7.4000001
23.575806 -20.745874 -0.85988396 10.1
23.795521 -20.673609 -0.79763067 11.8
23.854404 -20.722143 -0.95142132 15.2
24.602558 -20.726242 -0.89301777 14.2
25.097757 -20.666763 -0.90156353 6.4000001
26.748795 -20.66436 -0.90666497 10.4
27.27919 -20.776661 -0.85573566 7.0999999
29.867857 -20.644983 -0.86083961 13.4
34.006935 -20.665976 -0.86656833 18.4
34.381691 -20.745037 -0.94487584 13.2375
34.50684 -20.728067 -0.853926 6.3000002
36.513596 -20.701061 -0.84496766 21
36.651749 -20.767422 -0.82146907 11.6
36.724499 -20.706089 -0.85830581 16.325001
37.026234 -20.782921 -0.81840956 16.299999
39.023396 -20.754238 -0.89910632 6.8000002
39.520592 -20.660341 -0.88439494 13.4
39.553288 -20.79528 -0.86852682 7.1999998
39.733551 -20.742603 -0.79382783 20
39.932915 -20.685236 -0.85610068 10.175
40.010471 -20.712856 -0.89844614 6.9000001
40.23642 -20.723539 -0.84023142 9.0375004
40.386547 -20.711594 -0.81814849 6.5
40.581417 -20.724947 -0.93229246 9.7333326
40.676132 -20.655935 -0.88027656 6.1499996
41.060341 -20.696669 -0.80603832 8.6000004
41.222889 -20.677586 -0.81211066 15.174999
41.356075 -20.665085 -0.8679027 8.1999998
43.365726 -20.793568 -0.94834459 8.6999998
45.846149 -20.718946 -0.89614153 6.4000001
45.960632 -20.6516 -0.81986016 10.7
13.72398 -20.502644 -0.89543688 19.700001
13.866628 -20.50386 -0.86609554 16.633333
23.779682 -20.531652 -0.92730689 7.9000001
24.495365 -20.514084 -0.92305684 11.7
24.908813 -20.510099 -0.87096953 10
25.516979 -20.511429 -0.81356937 21.200001
34.219547 -20.575102 -0.87726402 9.34375
34.340546 -20.571442 -0.88676304 15.935764
34.459595 -20.551247 -0.81535274 13.6625
35.304363 -20.577168 -0.92990273 7.4000001
36.468658 -20.520485 -0.88516891 18.4125
36.621437 -20.613115 -0.8115924 13.5
36.733437 -20.49914 -0.80767047 11.3
36.927292 -20.529976 -0.8993094 17.1
40.164223 -20.631866 -0.84675813 11.5
40.256363 -20.611036 -0.93670285 8.1000004
40.563934 -20.584332 -0.80789232 15.825
40.761292 -20.540411 -0.88802385 12.233334
40.875683 -20.482019 -0.87428969 10.3
41.159943 -20.530382 -0.88278985 9.3000002
43.314545 -20.535984 -0.8991406 8.5
43.42247 -20.557617 -0.86423844 10.3
43.687775 -20.588306 -0.89514887 9.5
44.322403 -20.517845 -0.92968357 12.7
44.474075 -20.61768 -0.8055203 9.4500008
45.450352 -20.530264 -0.87562466 13.4
12.315042 -20.370094 -0.84877765 25.4
12.413936 -20.385197 -0.8613472 25.299999
12.550803 -20.374668 -0.90006721 25.299999
12.768877 -20.385265 -0.86533028 20.849998
12.953221 -20.440838 -0.87357849 22.1
13.03919 -20.362089 -0.80219162 11.45
13.255682 -20.434534 -0.84073967 18.375
13.539434 -20.450066 -0.86040211 16.65
13.653708 -20.457977 -0.8406812 13.450001
14.046222 -20.471752 -0.87255859 17.65
14.205523 -20.41148 -0.85971832 18.325001
14.334505 -20.379395 -0.89271796 13.4
14.45092 -20.359375 -0.93141931 19.4
23.219208 -20.342464 -0.83336252 8.3000002
24.164749 -20.401995 -0.81381965 13.7
24.354158 -20.385916 -0.9403196 9.6999998
24.731781 -20.333553 -0.82771546 12.9
25.052713 -20.470259 -0.80225241 8.1000004
27.07486 -20.341471 -0.95149249 15.5
28.382942 -20.34359 -0.9459101 8.1000004
30.584169 -20.374411 -0.81886709 6.5999999
31.139446 -20.404793 -0.95039988 7.8000002
34.099426 -20.399544 -0.87692088 21.549999
34.210732 -20.409245 -0.80226344 17.2875
34.325455 -20.392351 -0.8511529 11.527778
36.355873 -20.454256 -0.91567588 11.549999
36.621044 -20.39942 -0.89375991 12.21
36.700397 -20.333618 -0.80910683 9.3000002
39.614971 -20.349646 -0.90109026 8.6999998
40.103798 -20.376745 -0.79612631 16.9
43.487652 -20.370106 -0.84955382 8.3000002
44.239998 -20.370815 -0.86904627 11.6
45.830406 -20.473494 -0.83400017 10.9
45.99548 -20.459299 -0.89285886 8.3999996
46.108624 -20.410139 -0.88891113 16.9
53.920925 -20.399841 -0.82416403 10.8
12.030491 -20.250353 -0.79820567 25.700001
12.183543 -20.296171 -0.81230813 24.9
14.45507 -20.318214 -0.87027228 11.15
14.618673 -20.290575 -0.95016831 19.700001
14.787081 -20.249964 -0.94356531 18.9
14.97409 -20.212418 -0.90179944 19.262501
18.140987 -20.307949 -0.79678738 10.3
24.020868 -20.294113 -0.8860665 6.3000002
24.603218 -20.288269 -0.7960639 11.2
25.817118 -20.213198 -0.84105802 7.0999999
26.492815 -20.246717 -0.88274527 9.3999996
29.914452 -20.298929 -0.80767357 12.5
30.274078 -20.193117 -0.80964214 16.799999
30.493277 -20.289225 -0.887012 13.4
30.83567 -20.252043 -0.85667104 15.825001
34.183475 -20.213835 -0.85820538 13.533333
34.401718 -20.285641 -0.88613582 8.3000002
34.496979 -20.313524 -0.83570659 11.1
36.577957 -20.209862 -0.8932628 18.450001
36.853867 -20.317764 -0.88560021 7.4000001
40.099506 -20.18837 -0.81556511 18.1
40.499744 -20.301929 -0.82492745 6.4000001
40.746307 -20.244083 -0.81970918 11.5
41.104675 -20.242771 -0.9408375 10.9
42.602978 -20.213182 -0.88772845 19
43.448978 -20.271069 -0.94830102 7.6999998
43.687035 -20.224613 -0.93474019 11.7
45.112965 -20.274895 -0.87213123 7.8000002
46.037155 -20.241226 -0.92335725 11.049999
47.034145 -20.278702 -0.80451584 11.6
47.980263 -20.286907 -0.92652392 11.2
9.3194237 -20.085472 -0.94814378 12.6
12.800476 -20.098686 -0.8232615 25.4
15.156794 -20.121519 -0.87145114 16.200001
15.278719 -20.02018 -0.86683023 8.6000004
23.245861 -20.047979 -0.86909628 13.1
25.022942 -20.150337 -0.90970308 19.1
26.482721 -20.075205 -0.83938622 15.8
26.62327 -20.132704 -0.88041782 8.3999996
26.896544 -20.072212 -0.82769287 12
30.978989 -20.124626 -0.88018799 12.4
31.125557 -20.112328 -0.90543735 9.3000002
31.903141 -20.074949 -0.87240422 6.4000001
36.459858 -20.116499 -0.85693264 14.2
36.549129 -20.159925 -0.84540153 22.200001
38.69339 -20.058722 -0.79565549 15.3
41.915863 -20.003799 -0.85404587 18.5
43.002735 -20.048233 -0.95143068 10.4
43.359711 -20.147636 -0.86623448 8.3999996
43.579575 -20.058365 -0.86632043 13.55
43.706123 -20.063461 -0.79586041 8.1000004
43.861549 -20.153605 -0.92099833 16.299999
44.05777 -20.099014 -0.86277574 16.15
44.50486 -20.072699 -0.88411736 11.2
44.632812 -20.095699 -0.84975934 10
45.959888 -20.069147 -0.8131839 8.1000004
47.556416 -20.083822 -0.81520486 7.0999999
47.679691 -20.102894 -0.82335341 8.6000004
8.9332809 -19.854862 -0.8745383 14.8
12.052985 -19.917503 -0.84966034 0
15.42048 -19.93779 -0.85633516 13.25
15.638571 -19.910318 -0.89923412 15
17.23452 -19.931482 -0.80701667 0
18.222836 -19.891651 -0.81758666 9
23.763506 -19.890171 -0.7965821 6.3000002
24.631861 -19.917345 -0.87770158 7.5
25.003157 -19.990093 -0.93003356 10.9
25.171104 -19.947153 -0.92415589 17.200001
25.289232 -19.886389 -0.93552601 10.2
26.283829 -19.873495 -0.83814669 10
26.460632 -19.945946 -0.92926759 9.6999998
26.807392 -19.968294 -0.85406184 9
26.948631 -19.997648 -0.86752295 11.2
27.112453 -19.908478 -0.87847644 7.6000004
30.089617 -19.888983 -0.91390014 11.3
30.375851 -19.936871 -0.92845929 18
30.548733 -19.914549 -0.81157088 6.3000002
30.778896 -20.00182 -0.83640182 6.0999999
31.091419 -19.942829 -0.92854762 9.6000004
34.204903 -19.940889 -0.9344815 12.1
34.390041 -19.951845 -0.80404723 8.3000002
36.640572 -19.848209 -0.79479241 9.1999998
36.901119 -19.869902 -0.85722017 13
38.83371 -19.985281 -0.83897233 12.5
40.736786 -19.936369 -0.85413074 23.9
41.026344 -19.903749 -0.89612424 12.8
42.802502 -19.856445 -0.86297035 9.6000004
43.003426 -19.885365 -0.83500266 14.6
43.546696 -20.001242 -0.84982777 11.5
43.94426 -19.993832 -0.93874896 18.950001
45.183075 -19.929174 -0.85593629 12.1
46.838776 -19.940947 -0.86902678 9.5
47.163857 -19.923605 -0.92457873 8.8000002
8.6613846 -19.793982 -0.86760306 8
9.5151043 -19.690741 -0.80938363 15.1
15.653197 -19.802814 -0.92994404 9
15.801791 -19.751961 -0.87926996 11.625
19.989107 -19.83153 -0.83418345 11.5
24.083252 -19.75985 -0.86810762 6.3000002
24.456726 -19.687647 -0.91988313 7.5
25.047184 -19.718075 -0.88231403 6.3000002
26.672846 -19.815147 -0.81496012 13.8
29.839573 -19.838366 -0.94322103 17.549999
29.909554 -19.76819 -0.87531734 7.1999998
30.665291 -19.804199 -0.81286597 8.5
30.85059 -19.692816 -0.89070725 10.2
31.402954 -19.72702 -0.85211635 12
34.21706 -19.803221 -0.89161855 15.200001
34.356316 -19.772024 -0.90839541 14.275001
36.446606 -19.687159 -0.89073038 9.3000002
36.838287 -19.805138 -0.86159861 10.4
37.234627 -19.771118 -0.81054282 15.2
40.653488 -19.793762 -0.85388798 10.7
42.811699 -19.711367 -0.91957188 11.4
43.123173 -19.825777 -0.93307233 7.1999998
43.348751 -19.759413 -0.83930981 6.5999999
43.591347 -19.744123 -0.81417239 8.5
44.17762 -19.790276 -0.90669334 12.3
46.82708 -19.751659 -0.83492303 6.8000002
48.642502 -19.797647 -0.87336367 7.1999998
50.285095 -19.783695 -0.84435678 10.049999
8.4829216 -19.570667 -0.94463205 6.5
8.8306284 -19.624525 -0.86775017 13.95
12.844257 -19.616354 -0.83841527 12.8
13.22551 -19.638605 -0.79856807 8.5
23.923195 -19.53249 -0.8859694 9.3000002
24.709534 -19.680422 -0.9472605 7.4000001
25.389294 -19.663919 -0.84009492 7.5999999
26.771946 -19.670931 -0.90418583 6.0999999
26.960888 -19.588055 -0.95170897 14.4
31.055664 -19.670174 -0.85004485 7.5999999
34.13673 -19.623896 -0.90346092 17.299999
34.442574 -19.5924 -0.85541052 20.299999
34.512604 -19.681356 -0.84467286 7.8000002
36.501915 -19.597347 -0.85048115 13.9
36.596947 -19.632284 -0.93605173 7.8000002
39.861233 -19.530499 -0.84038955 19.1
40.062347 -19.536575 -0.85849035 24
40.294846 -19.530827 -0.82509959 16.799999
41.372131 -19.597551 -0.80503196 17.9
41.740635 -19.666643 -0.796507 6.9000001
42.642361 -19.614468 -0.88678771 15.4
43.223026 -19.591793 -0.91695356 16.4
44.420135 -19.676594 -0.90993786 15.7
46.894363 -19.672873 -0.87367225 8.1000004
47.237545 -19.536289 -0.81168497 9.6000004
48.609154 -19.608837 -0.89286125 11.55
8.5112629 -19.523409 -0.89625663 6.4000001
9.4849014 -19.50523 -0.95005006 13
10.566984 -19.457615 -0.93019354 37.5
10.883455 -19.370335 -0.93624091 25.4
12.80151 -19.41081 -0.8752839 9.8999996
15.624059 -19.403217 -0.87592196 11.6
16.23118 -19.525625 -0.87611634 9.5
16.443705 -19.457344 -0.85560596 8.6000004
24.046207 -19.519976 -0.85973442 6.5
25.487179 -19.444586 -0.79905939 7.5999999
26.657234 -19.372532 -0.88818222 6.4000001
26.882254 -19.412031 -0.90354562 8.8999996
27.255177 -19.372824 -0.8666178 6.5999999
27.514118 -19.469063 -0.86705953 8.8000002
29.456251 -19.381878 -0.83083522 16
29.975258 -19.371178 -0.83969414 7.5
30.66069 -19.47047 -0.82474053 6.6999998
34.775326 -19.525555 -0.85190511 15.7
36.552853 -19.466442 -0.87064886 12.2
36.799934 -19.509306 -0.86429834 7.5999999
38.859142 -19.399097 -0.87763333 26.6
38.977066 -19.477657 -0.8247205 26.5
39.153976 -19.510677 -0.83285749 26.549999
39.515572 -19.505537 -0.80997479 26.150002
39.656872 -19.494305 -0.81145704 25.9
39.793316 -19.520803 -0.80055416 25.9
39.849388 -19.497444 -0.87732238 6
40.389824 -19.507763 -0.83712375 16
40.530067 -19.51889 -0.85648143 15.2
40.766903 -19.498787 -0.88100934 18.700001
40.914886 -19.51866 -0.86331415 21.299999
41.019768 -19.498621 -0.82214868 20.5
9.0381069 -19.343115 -0.80270296 13.4
10.393114 -19.306866 -0.83376133 30.899998
10.529985 -19.273754 -0.8374905 33.020836
10.705179 -19.307465 -0.88165486 26.637499
10.857542 -19.28356 -0.85433793 20.875
11.006424 -19.346344 -0.91668546 19.799999
11.179239 -19.331989 -0.90517795 12.05
11.479187 -19.260485 -0.89240134 9.3249998
11.706903 -19.336983 -0.90473586 9.6000004
11.80966 -19.245247 -0.80883205 9.3999996
12.184235 -19.290602 -0.91404635 9.5
13.017158 -19.364874 -0.83786821 9.8999996
16.79673 -19.336979 -0.91590673 8.3999996
17.551613 -19.212627 -0.84008771 8.6999998
18.575209 -19.216431 -0.93696868 8.4499998
19.989365 -19.316347 -0.87473285 15.9
20.854654 -19.340326 -0.8220982 13.15
21.148195 -19.231472 -0.80682957 16.9
24.139149 -19.210514 -0.90921807 6.5
26.780834 -19.348215 -0.93610829 11.3
26.852627 -19.223076 -0.91592991 7.8000002
30.504364 -19.217396 -0.88469219 16.299999
34.246941 -19.215946 -0.88002807 19
38.555088 -19.278124 -0.93880141 11.6
38.757381 -19.330402 -0.92844945 26.799999
40.373177 -19.307474 -0.87604624 10.2
40.503197 -19.294085 -0.92684239 13.1
41.067886 -19.311066 -0.88239264 7.5
41.909424 -19.287584 -0.80137318 26.6
8.2025919 -19.086405 -0.87563163 8.8999996
8.8123569 -19.132351 -0.80629128 9.5
9.98211 -19.208868 -0.85148948 12
10.133549 -19.080517 -0.8412683 36.949997
10.272219 -19.195662 -0.84414053 37
10.401177 -19.09457 -0.83026052 27.9125
10.57298 -19.137466 -0.84617853 19.612501
10.694438 -19.117325 -0.8843891 10.983334
10.865959 -19.135908 -0.89218634 9.6222219
10.999875 -19.148291 -0.85641497 9.5666666
11.160136 -19.143059 -0.83523619 8.0453129
11.325657 -19.107327 -0.87260371 10.35
11.531713 -19.138702 -0.84803939 7.6000004
11.975368 -19.105864 -0.84802574 9.3500004
17.264122 -19.203724 -0.85539818 9.8999996
17.977848 -19.183697 -0.8619833 9.1000004
18.1938 -19.191946 -0.94365013 9.3000002
18.705481 -19.074564 -0.85341096 13.2
20.204369 -19.097479 -0.90446436 8.3999996
22.939739 -19.110176 -0.94293809 14.2
24.711731 -19.174442 -0.83080846 7.4000001
30.928452 -19.155863 -0.86620593 9.6000004
31.873743 -19.075884 -0.92190057 10.5
37.395798 -19.133755 -0.90310234 12.8
39.469162 -19.185396 -0.888318 8.8999996
40.430161 -19.095598 -0.86651057 7.3000002
45.150867 -19.126593 -0.90544248 8.6000004
54.751514 -19.134989 -0.89946616 7.0999999
8.7974176 -18.949139 -0.87730646 15.9
8.9480944 -19.029257 -0.79709554 8.1999998
9.0537043 -18.916042 -0.91056848 30.6
9.2477865 -19.001335 -0.8031407 8.8999996
9.9853706 -18.959822 -0.84996283 37.574997
10.061356 -19.030128 -0.84391779 37
10.215075 -18.962738 -0.848248 28.775
10.359685 -18.967939 -0.85519111 25
10.692499 -18.932659 -0.84086192 8.8500004
11.116054 -18.921116 -0.86210901 13.8
19.307182 -19.001301 -0.87965095 9.625
19.411537 -19.015066 -0.84780157 10.8
22.863825 -19.002695 -0.94747448 7.0999999
24.013119 -19.024906 -0.93493754 7.0999999
26.996067 -19.012936 -0.90768278 14.9
30.404593 -18.903481 -0.95006919 6.5999999
34.436497 -19.018257 -0.81857717 13
37.456459 -18.991638 -0.8422569 12.6
37.577038 -19.016735 -0.82085621 18.299999
38.644146 -19.047262 -0.91645122 7
38.843899 -18.953226 -0.86515534 8.6999998
44.888313 -18.953138 -0.90492427 6.0999999
45.020145 -18.936743 -0.8667413 10.8
45.149826 -18.921104 -0.83672172 10
9.7742529 -18.757219 -0.8572216 38.299999
9.8812761 -18.831593 -0.8584072 36.799999
10.076206 -18.830387 -0.82951552 30.924999
10.263245 -18.860613 -0.83697635 19.5
10.381669 -18.772909 -0.85221666 9.7111101
10.550056 -18.747803 -0.8400023 6.5
10.718948 -18.776012 -0.89165425 8.5749998
16.322746 -18.873127 -0.92910266 9.8999996
18.866701 -18.837286 -0.840707 9.1000004
19.591999 -18.853514 -0.83435762 6.6999998
19.742353 -18.888012 -0.80885613 8.8999996
19.988724 -18.816856 -0.87265158 9.5
20.48521 -18.79925 -0.94218427 9.1999998
24.868719 -18.811844 -0.87461406 7.1999998
24.978222 -18.869452 -0.81333005 7.6999998
25.127804 -18.75441 -0.83809519 15.2
26.716619 -18.761023 -0.87433827 8.6000004
26.975634 -18.842093 -0.85320687 9.1000004
27.108183 -18.812647 -0.83543801 16.200001
27.464945 -18.749575 -0.91125357 6.6999998
27.495068 -18.823364 -0.93571746 19.299999
30.36623 -18.869003 -0.82927394 9.6999998
34.03389 -18.739531 -0.88137281 6.6999998
36.771202 -18.818144 -0.80472285 21.799999
37.161957 -18.746105 -0.90749586 38.700001
37.45396 -18.807301 -0.86650753 38.599998
37.519592 -18.798414 -0.90587139 38.400002
37.676895 -18.77434 -0.89148003 36.633335
37.874737 -18.85957 -0.86223191 37.599998
38.153236 -18.761223 -0.80496478 26.5
8.0018368 -18.702219 -0.92269301 16.1
9.7287292 -18.59243 -0.8210963 35.700001
9.9806213 -18.698782 -0.81288517 30.549999
10.133122 -18.641665 -0.89755201 11.672222
10.244885 -18.688036 -0.85131568 10.866666
10.376276 -18.646868 -0.91013068 10.416667
10.596556 -18.720505 -0.83507466 10
20.209986 -18.712387 -0.82507265 7.6999998
20.362339 -18.722408 -0.81055307 9.3500004
20.63114 -18.688322 -0.83208346 10
20.839739 -18.659039 -0.86535215 9
20.958771 -18.659409 -0.87323415 9.2000008
28.005077 -18.591923 -0.92049408 13.7
28.23715 -18.688805 -0.9100039 16.200001
28.350349 -18.704908 -0.85790741 12.5
30.767391 -18.589556 -0.86956835 7.9000001
32.491718 -18.726475 -0.81268013 8.3999996
36.483147 -18.62104 -0.9387579 38.699997
36.729019 -18.61499 -0.92422503 36.949997
36.888485 -18.644873 -0.91636533 37
37.059761 -18.686474 -0.86997026 37.050003
37.28339 -18.640327 -0.87460989 35.599998
37.359398 -18.724327 -0.91651756 36.950001
37.559349 -18.674042 -0.8439188 34.625
37.745079 -18.628338 -0.90883529 25.900002
37.848083 -18.615252 -0.90025067 24.375
37.983154 -18.65204 -0.88960004 24.725
38.193069 -18.660427 -0.8729198 26.299999
38.325279 -18.660744 -0.82553029 22.299999
38.89959 -18.699963 -0.82088149 13.3
39.143337 -18.626291 -0.8296411 10.5
39.429558 -18.630058 -0.83280134 7.4000001
42.752686 -18.698143 -0.79700416 25.75
49.068714 -18.585073 -0.86072373 8.8999996
53.37101 -18.628744 -0.89385867 7
8.6486874 -18.557377 -0.8081665 8.6999998
8.7372818 -18.528656 -0.8346647 15
9.327528 -18.512882 -0.89401913 7.5
9.582159 -18.487501 -0.82719481 37.400002
9.7588711 -18.457624 -0.88272524 21.950001
9.9473648 -18.524506 -0.84260899 18.605555
10.07341 -18.545197 -0.85050738 12.675
20.969507 -18.567459 -0.81055492 8.6999998
21.182926 -18.561188 -0.88385427 8.9750004
21.287796 -18.448715 -0.8541404 7.4000001
21.709536 -18.511524 -0.84062588 6.8000002
23.482582 -18.57386 -0.85163128 9.6999998
25.834673 -18.573727 -0.83915508 12
28.991085 -18.444668 -0.92847604 9.1000004
34.339539 -18.420982 -0.94409502 19
34.55677 -18.443947 -0.92963243 25.299999
34.679306 -18.434649 -0.86635727 17.074999
34.924473 -18.441671 -0.91605324 25.4
35.002396 -18.440006 -0.82940871 16.450001
35.243301 -18.456661 -0.91759431 17.1
35.305256 -18.435562 -0.86669153 22.549999
35.453259 -18.430883 -0.80199534 17.716667
35.616482 -18.455921 -0.82869726 22.5
35.764709 -18.440521 -0.82482541 16.799999
35.901936 -18.481848 -0.79730362 25.1
36.438446 -18.463282 -0.88584602 36.125
36.620209 -18.524055 -0.8974278 35.849998
36.757896 -18.479752 -0.8967337 31.4
36.940189 -18.492239 -0.89479446 29.383333
37.133446 -18.450533 -0.93754137 24.700001
37.164669 -18.564932 -0.86003226 31.049999
37.35952 -18.506069 -0.89901406 23.333334
37.522717 -18.505175 -0.93019557 22.424999
37.703796 -18.4431 -0.94160473 16.049999
37.842613 -18.435658 -0.92562175 13
38.075817 -18.48139 -0.91193581 14.575001
38.172749 -18.48457 -0.85949123 13.3
38.312481 -18.428877 -0.93233204 9.6000004
38.49239 -18.436005 -0.92896187 10.65
38.703732 -18.421267 -0.86104733 7.5
38.825211 -18.450285 -0.83975434 10.1
38.960735 -18.467941 -0.86664736 10.4
39.871288 -18.46973 -0.93598634 18.700001
42.906517 -18.4468 -0.80604112 26.049999
47.419407 -18.455904 -0.89811969 6.3000002
47.584732 -18.460896 -0.87762272 7.4000001
9.0636463 -18.328815 -0.87268388 11.1
9.4217615 -18.294878 -0.87664205 37.116665
9.6404762 -18.336647 -0.86823201 26.724998
9.7350559 -18.365776 -0.87188131 20.51111
9.9458818 -18.329363 -0.87835151 9.2666664
10.086066 -18.35409 -0.92703593 14.3
21.448303 -18.338337 -0.92458391 8
22.621845 -18.328558 -0.85363328 10.9
27.923056 -18.404015 -0.86633801 11.2
34.098312 -18.317448 -0.81409198 8.5500002
34.244152 -18.385147 -0.88462907 7.0999999
34.297821 -18.264532 -0.89689314 9.8000002
34.478889 -18.403797 -0.92125124 14.9
34.636803 -18.375029 -0.85031033 10.65
34.8592 -18.408272 -0.81856167 14.15
34.999672 -18.38135 -0.79917747 13.9
35.140991 -18.415413 -0.81144029 16.5
35.288715 -18.399698 -0.81627935 13.7
36.651005 -18.29891 -0.83842677 25.1
36.926159 -18.315571 -0.95214945 19.799999
37.056 -18.300428 -0.93472099 16.900002
37.217243 -18.341612 -0.92576504 16.150002
37.354111 -18.329662 -0.93760258 12.9
37.532845 -18.38191 -0.87632006 12.7
37.764698 -18.283533 -0.90315431 8.5
38.211472 -18.369875 -0.89666665 7.1999998
38.295738 -18.265837 -0.86060518 9.3999996
38.460602 -18.267988 -0.91293752 9.8999996
38.627224 -18.271662 -0.86107284 6.0999999
38.927052 -18.348005 -0.824709 9.1000004
39.131176 -18.326488 -0.86878055 9.5333328
44.584225 -18.354189 -0.81047237 6.5
47.365253 -18.333755 -0.93252504 7.3000002
8.2099047 -18.254103 -0.87216437 15.5
9.0998497 -18.246754 -0.83932948 8.3000002
9.2988129 -18.189278 -0.92170107 38.099998
9.608592 -18.163031 -0.90963346 13.716667
9.7509699 -18.151318 -0.82122982 10.6
9.8499584 -18.230717 -0.83536786 9.8999996
10.065003 -18.16713 -0.9088279 8.1999998
22.375763 -18.186836 -0.93438762 14
22.62149 -18.177601 -0.935839 9.8500004
26.797997 -18.109819 -0.91589963 10.3
26.881481 -18.122231 -0.87089038 9.4500008
27.329554 -18.130003 -0.93360841 8.8999996
27.639986 -18.132511 -0.82801259 9
28.055931 -18.152006 -0.85524416 8.8999996
28.171486 -18.114359 -0.83846223 9.0249996
28.511826 -18.137844 -0.89806318 8.7000008
28.65189 -18.123646 -0.86455643 9.8500004
30.03858 -18.119776 -0.93605 8.6999998
30.550442 -18.122931 -0.79397339 8.6000004
30.676037 -18.107767 -0.92798281 8.6000004
30.876793 -18.126129 -0.95136094 16.799999
31.084957 -18.115549 -0.87301838 9.6000004
31.740147 -18.131134 -0.90041703 7.9000001
31.809452 -18.131441 -0.8443892 8.3999996
31.941296 -18.112375 -0.92620754 18.5
32.173958 -18.175926 -0.89518094 9.9750004
33.094376 -18.145109 -0.89856052 8.6999998
33.52636 -18.212246 -0.87130582 9.1000004
37.20554 -18.128353 -0.82289267 18.5
37.363041 -18.106134 -0.94300312 8.1000004
37.536392 -18.20953 -0.91971028 7.6750002
37.694885 -18.177816 -0.89479423 8.1000004
37.820488 -18.142437 -0.94773662 8.5
38.630169 -18.218283 -0.91626263 9.8000002
47.108391 -18.198278 -0.82371593 6.4000001
9.174159 -17.97975 -0.91452527 38.299999
9.2543354 -17.99855 -0.93217719 34.150002
9.4367533 -18.03686 -0.88363522 25.086111
9.6291313 -18.020472 -0.86707491 9.5166664
9.7187405 -18.009779 -0.91541064 8.6999998
22.907669 -18.092117 -0.91994643 8.8999996
23.771231 -18.055256 -0.92694855 6.8000002
25.079275 -18.032797 -0.93546367 8.8999996
25.557537 -18.087574 -0.89300382 10.5
25.696203 -18.0686 -0.8771832 9.6999998
25.826206 -18.056196 -0.93217731 10
26.258411 -17.976564 -0.93682206 9.6999998
26.454699 -18.081585 -0.90894336 9.6000004
26.655018 -18.019493 -0.81892145 9.1000004
27.063736 -18.060608 -0.80497026 7.1999998
27.148787 -18.06851 -0.83867848 8.5
27.372637 -18.053452 -0.83638859 8
27.574121 -18.058498 -0.82243896 13.9
27.740303 -18.090422 -0.94654995 9
27.866972 -18.074078 -0.87338006 7.8500004
28.41637 -18.079269 -0.83093333 8.5
28.831976 -18.068527 -0.82452726 8.5
28.938936 -18.078728 -0.84053266 8.9499998
29.073277 -18.081669 -0.874349 8.6000004
29.24962 -18.01432 -0.83927917 6.9000001
29.637852 -18.042578 -0.87499976 10.6
30.137224 -18.076981 -0.87868392 9.1999998
30.29982 -18.094597 -0.85735834 8.8999996
30.380854 -17.948002 -0.92823988 23.700001
30.852318 -18.092058 -0.93816638 8
31.090057 -18.063377 -0.92949784 8.8500004
31.311359 -17.976736 -0.8014493 9
31.584402 -18.075722 -0.91420013 7.1999998
31.785273 -18.052118 -0.93812805 7.8000002
32.34943 -18.050442 -0.80607241 9.1000004
32.886631 -17.940069 -0.82041776 7.9000001
33.141953 -18.005804 -0.92471355 15.9
37.740574 -18.00993 -0.94912851 8.6000004
38.045361 -18.05176 -0.94537419 9
38.143017 -17.972939 -0.83104479 9.6000004
38.632248 -17.994032 -0.80258679 8.8000002
44.108082 -17.99659 -0.90624154 8.3999996
9.307476 -17.875036 -0.83287549 25.487499
9.4365644 -17.850397 -0.87106007 11.725
26.416576 -17.891056 -0.90345037 6.4000001
31.087753 -17.917213 -0.88168406 10.9
35.986542 -17.826536 -0.89551795 7.6999998
36.457211 -17.856972 -0.85317588 7.9000001
38.690414 -17.857069 -0.8993274 7.5
43.120846 -17.885405 -0.85516286 25.299999
44.075607 -17.855946 -0.93953949 9.6999998
44.16824 -17.818056 -0.92113906 10.4
8.7729177 -17.758104 -0.87987095 9.3000002
9.0051212 -17.696899 -0.84904736 10.4
9.1875467 -17.663784 -0.90543616 28.025002
9.2993736 -17.716059 -0.83821326 13.7625
9.4430256 -17.768259 -0.82007354 11
9.8404694 -17.666487 -0.81420702 9.1000004
22.36113 -17.63069 -0.91281557 10
31.04883 -17.709915 -0.89652061 12.2
33.006214 -17.760845 -0.88528508 12.2
43.141495 -17.717344 -0.85195512 26.65
43.904469 -17.759972 -0.9056685 8
8.9888201 -17.542614 -0.8850835 34.150002
9.1382637 -17.561886 -0.81096298 19.950001
29.305433 -17.50041 -0.89228141 14.1
29.398483 -17.487589 -0.88045454 14.1
29.74279 -17.578697 -0.84821558 7.3000002
32.17918 -17.564629 -0.94494212 12.5
36.268864 -17.581524 -0.81288326 9.3000002
36.545975 -17.485382 -0.94777989 6.5
37.149937 -17.550636 -0.86903965 21.1
39.493633 -17.498392 -0.83616763 12.8
43.10891 -17.536308 -0.81351137 26.799999
2.9705095 -17.35408 -0.86632717 8.6999998
8.8644476 -17.313669 -0.79976934 34.125
8.9720011 -17.406942 -0.81885046 29.508331
9.1674252 -17.334097 -0.80914366 10.5
9.3404942 -17.454657 -0.84384346 9.8999996
23.764561 -17.412588 -0.92136621 14
23.982948 -17.463158 -0.84141791 10.6
26.680967 -17.402681 -0.93475175 7.8000002
28.824999 -17.386538 -0.81071365 12.9
28.947239 -17.306984 -0.84064257 9.8000002
29.840237 -17.393196 -0.88533384 21.6
30.992432 -17.359364 -0.83916461 8.3000002
34.120018 -17.460327 -0.84797543 9.8999996
36.384727 -17.319344 -0.84489739 6.75
43.788864 -17.430723 -0.81186032 8.6999998
44.25235 -17.425684 -0.90345776 6.9000001
44.336395 -17.367109 -0.79693156 7.0999999
2.5537887 -17.170818 -0.86791599 26.299999
8.0810652 -17.19553 -0.87784672 8.1999998
8.7761765 -17.207428 -0.79414761 37.574997
22.813013 -17.214069 -0.87140524 14.5
29.866819 -17.24408 -0.90037 8.6000004
35.502712 -17.271742 -0.81010282 8.6000004
36.296326 -17.235939 -0.87525249 22.25
36.480232 -17.185442 -0.82840776 16.700001
36.706062 -17.218466 -0.93185419 11.75
43.112389 -17.241543 -0.86287069 25.700001
8.7190084 -17.125776 -0.80912983 38.599998
9.6255617 -16.991463 -0.8304612 10.6
30.368418 -17.14406 -0.88881302 10.8
35.121418 -17.056763 -0.94120419 12.7
35.591957 -17.087547 -0.80588186 13
36.302376 -17.057447 -0.8771584 16.099998
36.454479 -17.056944 -0.87721348 6.3000002
36.803001 -17.041109 -0.90577984 6
36.922318 -17.108568 -0.81284535 9.4499998
37.099178 -17.028521 -0.95128036 10.716666
37.222694 -17.068327 -0.82127035 16.6
37.445873 -17.09482 -0.82095647 11.2
43.072578 -17.106701 -0.85596287 26.849998
44.003891 -17.02807 -0.8090778 8.8000002
8.997076 -16.973185 -0.9313879 16.1
30.096291 -16.902725 -0.85504591 10
30.610901 -16.854649 -0.91620541 17
30.844627 -16.981537 -0.88943374 20.6
31.200802 -16.96299 -0.90971839 10.2
35.250538 -16.942532 -0.88205165 13.5
36.234547 -16.909611 -0.89448965 14.8375
36.430107 -16.917101 -0.9137978 14.6
36.555199 -16.890961 -0.84144163 15.775
36.740177 -16.937099 -0.84941816 12.125
37.045052 -16.958891 -0.86276728 14.7
37.618298 -16.847929 -0.83200055 10.3
38.139053 -16.832695 -0.93943608 28
9.0358944 -16.68601 -0.80688417 9.5
9.1602364 -16.766279 -0.79501188 9.1000004
9.3903646 -16.823473 -0.84377152 7.0999999
9.5414228 -16.675251 -0.93037337 8.5
30.314777 -16.783422 -0.89884269 7.1999998
30.461639 -16.675201 -0.85154068 10.25
30.580818 -16.712109 -0.86727858 20.299999
30.664759 -16.674232 -0.86404896 13.2
30.85878 -16.760115 -0.86060113 10
