# .PCD v0.7 - Point Cloud Data file format
VERSION 0.7
FIELDS x y z intensity
SIZE 4 4 4 4
TYPE F F F F
COUNT 1 1 1 1
WIDTH 1200
HEIGHT 1
VIEWPOINT 0 0 0 1 0 0 0
POINTS 1200
DATA ascii
838.89136 -661.03461 103.84879 5.2399998
821.93817 -659.65802 103.87089 8.6682882
828.18726 -659.8302 103.25587 11.440138
829.00397 -659.90295 103.90432 7.9349999
834.02881 -660.52014 102.98825 8.1374998
828.12476 -659.16736 103.20073 13.647916
829.02759 -659.03754 103.8782 7.1350002
836.36963 -659.16687 102.93861 8.7200003
828.91882 -658.03809 103.30821 9.2024994
837.07739 -657.53412 103.87325 5.9699998
838.74561 -657.12927 103.584 8.039999
840.50171 -657.69397 103.80817 8.409977
827.12354 -655.75757 103.96938 8.1199999
829.14923 -656.43439 103.46169 11.599723
838.65137 -656.87946 104.15499 6.77
840.21777 -656.01105 103.52689 9.1284084
843.05963 -656.36145 103.50148 7.7437792
812.82812 -654.7417 103.62267 8.9300003
821.12329 -655.28314 103.77142 12.51
822.86938 -655.08038 103.46106 15.35691
825.66541 -654.5575 103.35881 12.6
827.0697 -655.17114 103.88889 8.1199999
829.21716 -655.41315 103.41849 9.1850004
842.15411 -655.07312 103.59216 7.505156
842.91724 -654.76831 104.172 7.5599999
806.29248 -654.01697 103.84332 10.06
812.22223 -654.16217 104.00322 13.279688
817.27814 -653.22559 103.45455 9.3900003
818.91351 -653.81989 103.64097 12.245
821.52344 -653.3158 103.2442 14.573704
826.75488 -653.93561 103.6488 17.16
828.66406 -654.00488 102.96481 10.355
837.93127 -653.29663 103.3239 10.956788
839.16681 -653.96722 103.91367 10.526752
842.69971 -654.00659 103.95947 6.2167606
807.63373 -652.67896 103.82391 8.2618752
810.27124 -652.60242 103.79516 6.7199955
811.83118 -652.49207 103.96272 8.2035542
812.04761 -652.93982 103.37039 13.265312
815.72845 -652.40527 103.83992 6.9699998
816.24573 -651.96979 103.94386 9.2292194
818.93604 -652.33124 103.43152 9.8910942
826.95068 -652.37616 103.06545 12.7
827.72314 -652.14941 104.08519 7.52
838.51978 -652.05206 103.91412 12.765467
839.41095 -652.78339 103.51393 12.852715
840.45911 -652.57458 103.56833 9.0567036
841.39319 -652.56665 103.09816 9.0500002
842.70239 -652.37024 103.62004 13.615002
807.12622 -650.98541 103.85215 7.6475
810.22284 -651.75757 103.86652 9.9400005
811.65204 -651.13672 103.32058 7.687006
812.76062 -650.883 103.89307 9.9559784
813.99146 -651.37659 103.7736 9.3320837
816.68988 -651.20312 103.83931 7.5261192
827.4032 -651.43408 102.99744 11.2425
838.48877 -651.52997 103.61221 8.9949999
841.06085 -651.49304 103.5229 11.181387
841.40643 -651.53986 103.90778 9.906188
842.7915 -651.28015 103.52626 16.315979
806.57324 -649.88678 103.8734 10.895
807.77814 -649.88763 103.4477 10.351342
809.82013 -649.57294 103.6322 17.863712
811.59656 -650.12073 103.91863 9.0015631
812.29333 -650.1001 103.59662 11.958698
816.57379 -649.78296 103.65679 11.201291
818.05737 -650.30505 103.94026 9.9701328
827.49713 -650.12292 103.04347 11.46
841.79559 -650.13135 102.99815 11.525001
842.64526 -650.28296 102.99865 12.787188
806.75562 -649.04187 103.79398 10.195971
806.96252 -649.24591 104.05211 6.5599999
808.84552 -648.76605 103.8981 8.2049999
809.92523 -649.37231 103.6315 17.4
811.68286 -649.05347 103.80498 9.3400002
812.3739 -649.26343 103.61455 8.665
814.70477 -648.81787 103.95662 7.7902589
816.95233 -648.85303 103.45376 11.018641
818.06415 -648.60345 103.78547 12.51596
818.90271 -648.34058 103.68977 9.1399994
826.98352 -649.01508 104.19051 7.3800001
834.13599 -648.58899 103.27678 8.0000172
842.05658 -648.20178 103.0683 8.6199999
806.16022 -647.45795 103.86382 9.4649992
807.0672 -647.80896 103.6515 9.8626156
808.81696 -647.38489 103.48225 10.85204
810.06848 -648.08887 104.18227 5.04
817.77161 -647.47522 103.76107 7.6999998
827.07812 -647.66638 104.00897 8.0625
828.29932 -648.0578 102.96143 10.16
835.16327 -648.06427 103.71383 16.190811
863.34369 -647.68182 102.97583 5.27526
807.34375 -646.68884 103.83234 6.970005
808.90607 -646.34204 103.84996 11.478382
810.10266 -646.0174 103.58682 11.697501
811.0946 -646.2887 103.39886 8.2465668
863.24341 -646.56921 103.32008 7.2333336
807.37433 -644.48547 103.88418 9.2506161
808.52527 -644.61816 103.87595 9.7399998
810.07379 -644.97632 103.2811 7.097291
811.59521 -645.08594 103.97758 8.639966
827.07068 -644.33124 103.83535 10.19
862.33722 -645.20959 103.05882 4.4000626
802.32129 -643.14246 104.0596 8.1920319
807.6297 -643.42676 103.89583 9.7892704
808.93579 -643.55499 103.38126 9.3598862
809.80347 -643.70667 103.60011 7.6473789
811.28174 -644.13782 103.40244 9.1599998
827.13458 -643.44312 103.92345 9.6700001
802.61255 -642.31873 104.16707 7.6900001
804.39526 -642.29956 103.22749 11.058889
804.97437 -642.15564 103.1516 7.4786263
809.18689 -642.02161 103.12615 6.5907011
809.90405 -641.80701 103.76959 9.6199999
815.08618 -642.06726 103.18954 10.26
816.04382 -642.24933 103.42503 8.5306244
826.75836 -642.68353 103.16779 13.25
839.48718 -642.3457 103.77644 10.714687
840.23181 -642.31384 103.63445 7.7399998
841.30261 -641.80969 104.06987 6.6500001
805.15424 -641.36957 103.88676 9.9900007
805.97571 -641.06726 104.09877 8.6499996
807.75806 -640.61389 103.9176 8.8575001
808.59692 -640.66248 103.06108 6.5325179
809.88495 -641.18872 103.41434 6.8296514
826.9834 -641.33691 103.06687 12.061666
839.4303 -641.07983 103.28123 7.3876753
841.47607 -641.28857 103.53017 6.8000002
807.8504 -640.22388 103.67206 7.0593748
809.35767 -640.02386 103.04917 6.4600015
826.99316 -640.40088 103.54619 9.1049995
833.01074 -639.87524 102.94221 9.3233604
834.33398 -639.92432 103.43349 12.573672
838.38513 -639.95581 103.57093 8.6700096
839.16235 -640.43787 103.98844 6.52
825.02802 -638.14197 103.1723 11.52
832.91956 -638.56891 103.04938 12.714969
834.20898 -638.53546 103.58398 13.260786
837.94562 -638.81171 103.6334 7.936667
839.61584 -638.99518 102.98761 11.99
812.29114 -637.08325 103.86375 8.3796997
822.39014 -636.7951 103.49463 8.4650002
825.09644 -637.29193 103.04418 14.011729
833.20337 -637.20844 103.69501 9.7976255
834.38055 -637.19177 103.87899 6.0133338
812.57483 -636.28113 103.72751 7.1500001
821.7356 -636.05884 103.59658 7.9900002
822.95209 -636.24274 103.74042 8.1103897
825.19489 -635.9989 103.47977 12.943214
838.25555 -635.77911 103.49078 8.7067575
839.18024 -635.7063 104.1404 6.8200002
820.04462 -634.34674 103.09402 6.1500001
821.63495 -634.61658 103.10196 8.3850002
822.84186 -634.95703 103.78782 11.23924
826.84058 -634.43658 104.12415 8.4699993
838.15771 -634.86517 103.64453 6.4255443
821.87939 -633.32043 103.10837 12.7
822.36212 -632.94537 102.97501 12.131249
838.53845 -634.0896 103.88979 8.3545837
812.43597 -631.85425 103.67464 6.77
823.49121 -632.62134 102.99353 5.8400002
812.66034 -631.09473 103.16861 6.6500001
821.89594 -631.2218 103.2485 7.2199998
822.53906 -630.96338 103.50975 9.3520527
816.79724 -630.20642 103.15435 8.0300007
821.92664 -629.96222 103.03821 8.7200003
822.83105 -629.5708 103.81183 9.1937504
822.6272 -627.91266 102.97109 7.9400001
823.73926 -628.2821 103.79123 9.959794
821.24634 -627.0459 103.35981 10.292686
823.55035 -627.03357 103.8347 14.13
821.11713 -625.77802 103.20508 8.3600006
823.38531 -626.07013 104.00512 13.982071
823.33569 -625.19208 103.94781 9.4099998
841.59448 -624.76221 103.87375 7.3899999
841.08563 -623.87769 104.08259 5.1500001
841.32013 -623.93689 103.8542 5.1500001
836.09814 -615.26233 103.54064 10.01
837.35461 -615.32043 103.19016 7.0599999
834.03436 -614.14307 103.09067 12.4
835.52417 -614.33655 103.51514 7.7495689
836.89453 -614.40912 103.57108 7.1347308
843.65741 -614.37775 103.56497 8.0550003
834.6394 -613.11694 103.38113 5.1050005
835.29169 -612.96356 103.70426 8.5465622
836.42126 -613.11841 103.85391 8.5201464
837.81537 -613.11285 103.42458 7.6375022
834.18665 -612.13269 103.2037 6.4700003
835.5047 -611.97778 103.09253 5.2647657
837.01868 -611.62897 103.68611 10.003035
838.23627 -612.19464 103.51854 9.9431353
834.22125 -611.11212 103.99554 6.0300002
836.57788 -610.6781 103.69482 9.2968884
837.75598 -610.58472 103.29201 5.9400101
837.03162 -609.40552 102.99921 4.7399998
838.08459 -609.67578 103.04552 4.3200541
838.49109 -606.71521 102.99097 5.8000002
832.64221 -596.34937 103.83484 11.38
840.40619 -596.06812 103.22282 7.6799998
842.10968 -596.47449 103.27927 7.2696552
840.53333 -595.99817 103.30435 7.6794853
841.9856 -595.89709 103.04274 7.0750256
836.91998 -584.11621 103.3927 8.008646
837.69434 -583.31964 102.96303 7.1000004
838.29205 -583.08795 102.95418 7.6900001
835.65222 -576.12354 103.85994 7.1199999
835.89813 -571.86157 103.40759 8.3299999
836.80286 -572.09607 102.97423 5.6999998
835.64783 -571.21887 103.93069 7.4850001
836.58118 -571.46899 103.14813 8.3299999
837.80493 -571.61389 103.79808 6.77
834.52936 -570.25769 103.95674 6.7199998
835.28253 -569.88702 103.82919 6.7199998
836.87903 -569.93237 103.80609 7.1525002
838.22656 -569.73352 103.2413 7.4899998
835.25977 -568.42358 103.10487 7.2200003
838.08417 -568.73083 103.09975 7.8399715
816.85571 -562.97394 103.74737 8.4411983
817.54431 -563.6073 103.7706 9.3804855
816.8454 -562.63116 103.8279 6.342299
817.8952 -562.32849 103.50772 11.16
818.71582 -562.59204 103.71738 8.0276546
817.70734 -560.67694 103.56422 10.376893
817.98621 -560.36566 102.95613 9.6300001
820.60797 -559.37933 104.09486 9.1949997
820.47736 -558.65076 103.67911 9.3599997
821.33008 -558.75623 103.40124 9.1949997
850.10577 -541.59412 103.42857 11.06
849.02832 -540.32831 104.17197 5.9299998
849.56152 -539.68311 103.34444 6.5249996
850.61591 -539.46082 103.42172 6.0924997
849.93866 -538.5094 103.73092 6.29
850.79285 -538.14453 103.16664 6.52
771.44061 -513.40796 103.24231 11.61
770.61731 -512.72766 103.33965 10.39
863.258 -510.96622 103.3726 9.3933334
864.49951 -511.34204 103.604 7.1999998
863.76849 -510.23593 103.51096 7.312778
864.62726 -510.47754 103.37215 7.0050001
865.46808 -509.7348 103.23048 5.6399999
864.12506 -509.11185 103.49944 7.0500007
864.8739 -509.22369 103.66267 7.7977781
865.76831 -508.47321 103.75194 7.6663914
864.79803 -507.56396 103.65143 7.7459044
865.6283 -507.64105 103.34428 7.3247952
867.37628 -504.93442 103.4645 7.4724069
868.40277 -504.62772 103.67284 7.5599999
867.17609 -503.78244 103.88235 7.8691669
868.32367 -503.91113 103.70404 7.2133331
867.48792 -502.80273 103.31375 7.9387226
868.79749 -502.48907 103.79358 6.7667599
869.94708 -502.27765 103.25229 5.2199998
856.42603 -500.76031 103.09248 11.4
858.48181 -500.99442 102.96515 10.86
859.4635 -500.73688 103.01542 10.74
867.39044 -501.35062 103.49194 5.472589
868.57605 -501.51703 103.34364 7.5940504
869.93787 -501.28323 103.56723 6.1202469
870.52429 -501.44446 103.11185 5.2199998
869.1355 -499.5332 103.76066 9.3699999
869.69775 -500.08112 103.69273 7.9247551
857.33099 -498.45383 103.11484 11.4
859.51752 -498.71539 102.95377 11.093281
868.16443 -499.16901 103.86686 7.5150003
860.31104 -497.94055 103.03734 10.74
873.22321 -497.32693 103.79755 6.6799998
856.31122 -485.64041 103.22163 7.145
857.61322 -486.10208 103.28852 7.1749997
858.65778 -486.2243 103.20288 11.57
856.53931 -484.23511 103.02823 8.4250002
857.81958 -484.52393 103.08549 6.6433334
856.99072 -483.49689 103.03706 8.3033333
856.96222 -481.29022 103.88698 12.645
858.32617 -481.11163 103.27921 6.9189577
856.97687 -480.00223 103.89979 12.976666
857.47559 -478.95944 103.23394 12.313334
855.72528 -476.65707 103.32148 12.976666
858.54376 -476.87045 103.29801 5.8299999
856.31946 -476.45032 103.17215 11.65
827.15515 -1051.0719 104.25248 14.66
827.22375 -1050.2101 104.36598 12.62
827.26001 -1049.444 104.91087 6.6900001
827.34546 -1049.3739 104.6904 6.6900001
816.86841 -815.04065 105.15871 14.06
817.74969 -815.07715 105.34732 14.06
816.93988 -814.18188 105.14108 13.48
817.81573 -814.21802 105.32851 13.48
880.90576 -724.58746 104.89594 9.8699999
880.20752 -723.53259 104.73015 12.48
879.77869 -722.7854 104.70408 7.8600001
837.62073 -711.09741 105.0433 12.29
837.5509 -710.23926 105.00404 11.49
836.62463 -705.25989 104.86577 7.9000001
838.38818 -702.27271 105.03029 4.9499998
824.04816 -695.90649 105.07639 10.650001
824.4502 -694.47357 105.38734 6.9400001
837.00842 -694.15454 105.45192 9.2573414
838.12683 -694.17981 105.16727 7.9899998
836.8493 -693.07648 105.40415 8.124341
889.01379 -693.01892 105.4054 10.53
835.99371 -692.05029 105.10999 7.3788719
836.45288 -692.04565 105.129 8.1748619
888.49054 -692.05762 105.30301 6.2459054
836.04773 -690.07825 104.97632 9.1231251
836.82642 -691.12048 105.00473 7.955512
887.6665 -690.85614 105.14144 8.1999998
803.5376 -689.89948 105.3851 7
836.04364 -689.61652 105.02151 10.245667
836.97284 -689.68066 104.96014 9.7418909
837.53204 -689.64868 105.40703 12.012127
803.75629 -688.1004 104.71815 7.415
823.36127 -688.21594 104.87758 9.3999996
824.50775 -687.54517 104.52377 8.2718048
834.55676 -687.90399 104.38494 7.2399998
835.91699 -687.94354 104.93913 9.051939
836.96582 -688.17499 104.98259 8.3109875
837.95001 -688.21259 105.17004 9.1833315
802.80383 -687.33264 104.71296 6.96
824.91919 -686.39984 104.75883 10.221042
835.90234 -686.49915 104.88618 7.7495213
836.63989 -686.87012 104.85068 8.714942
837.70825 -686.25049 104.69589 9.1051865
805.33777 -686.10651 105.01085 7.9300003
806.16766 -685.43909 104.9325 9.8865566
824.66583 -685.79834 105.05244 10.560278
835.87842 -685.42773 104.71749 9.0936003
836.76392 -685.57666 104.80981 8.4849958
838.03302 -685.75861 104.8586 9.3350372
806.13177 -684.3075 105.13477 8.1898079
807.59863 -684.42645 104.94205 7.7903962
821.81897 -684.43494 104.60358 5.5999999
825.01093 -684.91522 105.46989 11.37
835.98456 -684.56982 104.5183 8.2373905
836.71942 -684.25781 104.64858 9.482358
807.53156 -682.81836 104.91093 8.1966667
822.26373 -683.24298 104.4837 8.1650009
835.64093 -683.16925 104.56337 7.9909801
836.90509 -683.08838 104.8186 9.062335
837.53284 -683.18903 104.57706 8.9794998
842.33594 -682.51038 104.81717 12.98
842.55377 -683.35144 104.74811 14.03
807.65552 -682.31512 105.24895 6.760807
816.23309 -681.84912 105.35979 9.3299999
821.59033 -681.71741 104.77898 9.2958202
834.58807 -682.11041 104.23419 8.0200005
835.7854 -681.92255 104.79208 9.0456362
836.8678 -681.48932 104.84437 8.5789375
837.81842 -681.99622 104.39587 8.8073673
812.90833 -680.1687 104.86589 9.1000319
814.69727 -680.18164 104.79505 9.9300003
816.24182 -680.67792 104.95243 9.4459591
820.27393 -680.65021 104.9368 12.321833
821.85272 -680.43042 105.25129 10.954999
837.0144 -680.37036 104.26324 9.2626114
812.81494 -679.02435 105.08502 9.9500008
815.24933 -679.07538 104.82697 9.5519266
816.50977 -678.82947 104.83067 9.3743858
817.97516 -679.3526 105.09097 11.383957
819.01819 -679.17035 104.9858 10.3692
820.52039 -678.74603 104.76454 11.151971
821.62354 -679.7738 104.52054 15.85
835.05322 -678.79175 104.46986 6.27
837.526 -679.36414 104.27814 7.9741673
808.87012 -678.15894 105.4296 9.3900013
812.82074 -678.53516 104.89246 11.3925
814.12939 -678.1333 104.85809 9.7441111
815.44049 -677.86371 104.96167 10.290026
816.62396 -677.81122 105.13737 10.611198
817.62598 -677.69891 104.69861 9.4516668
819.2168 -678.08911 104.78194 11.145
823.68555 -678.32715 104.94148 12.318522
825.74414 -678.16235 105.15654 13.127501
828.15045 -677.81006 105.30103 4.3400002
836.77521 -678.36169 104.26608 9.2214708
837.95056 -678.30786 104.57446 8.7493334
809.82312 -676.57373 105.06036 9.6872005
811.3512 -676.86731 104.94228 13.092672
812.58301 -676.72888 105.05193 10.111762
818.96283 -676.79553 105.00069 9.9253035
820.35956 -676.76428 104.9473 12.438588
825.54584 -677.15619 105.12755 16.9
828.71692 -676.63324 105.16234 8.7012501
836.36035 -676.27472 105.29611 8.8251848
806.92157 -675.88593 104.66471 11.045001
807.57147 -675.78845 105.20216 9.8563766
809.44653 -676.0199 104.85822 12.93
809.91028 -675.27765 104.83205 8.1800003
812.44672 -675.35083 104.94963 7.8199348
817.79797 -675.55005 104.94046 9.2351322
835.51709 -675.05231 104.64603 13.534299
835.82581 -674.64832 104.95364 15.816203
837.36304 -674.24005 104.88909 11.739999
805.59741 -672.43835 105.18732 6.3499999
805.77759 -672.85565 104.73791 7.5133338
828.18121 -673.02563 105.31891 9.8850002
806.21417 -671.53906 105.09052 8.5465517
825.849 -671.07458 105.44225 10.035
827.85364 -671.73657 105.15712 8.0853891
807.28528 -670.71667 105.3759 10.976666
816.52606 -670.67786 105.24095 6.6204691
818.72052 -670.40875 104.94566 6.1400018
825.77155 -670.32013 105.17587 12.18
828.12085 -670.16559 104.91221 11.397499
841.90649 -669.94202 105.4558 6.0699997
808.28351 -669.29761 105.2767 8.71
827.94336 -669.13263 104.86979 8.5530558
842.12769 -668.65808 104.74362 5.9442692
828.12189 -667.71649 104.72665 8.1695833
828.71393 -667.80481 105.23541 13.63
841.79254 -667.60919 105.11307 7.7913175
822.81897 -666.90375 104.99464 6.71
823.5675 -667.08911 105.06107 8.3000002
828.71765 -666.63025 105.05654 11.0725
841.64026 -666.7998 105.06586 7.3276167
821.59009 -664.99329 105.29123 6.6199999
823.30176 -665.44702 105.40145 11.983335
823.51062 -665.68866 104.54795 9.7603445
825.81903 -664.80823 104.93254 16.950001
828.70276 -665.31421 104.45903 11.238333
848.7774 -664.66125 104.39352 7.8666668
822.45221 -664.05334 104.29631 4.9400001
825.78247 -664.07513 104.70965 15.965
848.57336 -664.49127 104.99947 11.453293
825.74554 -663.34186 104.48713 14.98
827.82611 -662.62695 105.40383 8.5500002
827.47241 -661.25269 104.71093 12.868333
838.92926 -661.13 104.2095 5.6850028
821.53711 -660.26886 104.63239 9.2716837
826.55554 -660.14392 104.98019 7.3800001
827.54462 -660.14246 104.89604 14.93
820.79645 -659.19098 104.89664 5.3099999
820.95801 -658.39575 104.72592 7.27
826.58789 -659.26624 105.03923 7.4499998
826.41815 -657.15857 104.93224 12.35
839.7594 -657.51691 104.97746 6.6999998
840.39832 -657.39142 105.13713 8.520937
826.88513 -656.28979 104.58903 11.3075
828.62891 -655.96838 105.03877 7.9299998
839.18561 -656.19653 104.95126 4.54
842.94775 -656.08453 104.25296 8.3900003
826.82745 -655.03387 104.26029 14.085
828.65356 -655.17859 104.47605 6.9200001
838.7738 -655.40723 104.87521 6.1599998
843.17578 -655.57568 104.26354 5.9400001
806.4118 -653.5719 104.75166 10.486667
807.23047 -654.30664 104.86314 13.36
813.76447 -653.21899 104.35158 10.21
814.91992 -653.83472 105.10004 9.3199997
821.60638 -653.33026 104.23086 15.69
838.8999 -653.60614 104.91549 13.694021
806.6297 -653.05316 105.1888 8.0875263
807.10736 -652.66614 104.77109 6.8413286
810.60962 -652.35626 104.60507 10.922269
811.71362 -652.901 105.08584 7.9982691
813.86322 -652.27771 104.85943 9.3775787
815.09277 -652.67712 105.03224 10.1
828.03821 -653.01514 104.21538 6.6700001
838.13831 -652.72791 105.04823 10.743368
838.87219 -653.0321 104.32477 10.819999
805.27106 -651.19641 104.97646 12.79
808.15588 -650.89478 104.6016 9.3100004
810.62402 -651.45947 105.45203 10.717501
811.53546 -651.52551 104.82463 11.466178
812.10303 -651.89496 105.11979 8.807066
813.67352 -650.93719 104.74276 12.91
815.38763 -651.46753 105.0334 12.214996
816.56104 -651.35736 104.80628 7.9037466
818.33423 -650.64935 104.86386 9.4399996
805.45422 -650.36206 104.93731 11.08
810.43042 -650.04749 104.29916 11.98
811.34961 -650.30261 104.9613 10.608982
815.26886 -649.51508 104.48068 9.2150021
816.13495 -649.86298 104.81248 10.643825
817.61517 -650.02435 104.97095 7.4967589
827.00885 -649.60028 104.20659 7.3800001
809.41113 -648.82117 104.27453 5.8400002
811.64465 -649.30255 104.37119 9.4099998
813.24182 -648.47906 104.59241 7.3499999
813.52765 -648.64636 104.92434 8.2975006
815.10406 -648.54102 104.91152 8.3566666
816.76465 -649.16479 104.81515 15.470012
817.79645 -648.61853 104.58938 10.493335
827.05743 -648.72314 104.24759 8.6400003
807.8252 -647.42584 104.86158 9.266099
808.51978 -647.12939 104.26505 10.46
809.84821 -647.97321 104.39822 5.04
814.0603 -647.8009 104.76282 8.2589998
816.29834 -647.95782 104.56017 8.54
817.9585 -647.97803 105.31618 10.31999
818.89746 -647.22583 104.81786 8.6300001
834.57983 -647.86688 104.8819 10.047499
835.53595 -647.65155 105.297 7.4050002
806.89539 -646.83264 105.18837 8.5199938
807.61108 -645.94269 105.08453 9.0516787
808.37628 -646.79694 105.41994 9.46
810.3457 -646.63403 104.85623 6.8221874
811.32593 -645.72144 104.60674 9.9300003
820.35278 -645.81158 105.146 8.3199129
846.65558 -646.25848 104.85434 7.7400002
809.86389 -644.81104 104.71552 8.4399996
820.64166 -644.77368 105.00398 8.547554
821.23291 -645.04694 104.87576 6.7693534
862.27002 -645.28516 105.42393 6.52
807.25098 -643.49622 105.27002 9.4799995
809.54156 -643.95441 104.46918 8.3300009
820.46948 -643.61005 104.98909 7.6538496
821.13965 -643.77399 104.37185 5.2539001
807.61206 -642.22302 104.85046 10.293754
839.87024 -641.82886 104.74628 7.1799994
807.62463 -640.85657 104.55104 8.8638535
839.42627 -641.38782 104.66704 6.0661116
807.80859 -639.84808 104.28548 6.5999999
833.17578 -639.54797 104.66373 9.2604799
838.45789 -639.94067 104.89765 12.133333
831.99738 -638.508 105.10197 9.8095312
832.9834 -638.54083 105.02112 9.3034763
833.73828 -638.70374 104.56283 10.200098
837.10614 -638.98138 104.44555 8.9399996
838.1394 -638.57202 104.77356 8.5356255
838.81738 -638.97784 104.82606 8.9700003
831.99805 -637.42773 104.51306 9.816597
832.94238 -637.41071 104.56754 11.13726
833.67163 -637.85657 104.42007 8.2201958
837.99976 -637.4649 104.6749 7.7051754
821.8291 -635.94092 104.79156 11.24
825.35059 -636.43384 104.22549 14.03
837.07117 -636.25537 104.33298 9.8950005
837.59021 -635.67719 104.41054 6.9699993
821.901 -635.12024 104.49548 9.6300001
822.45178 -635.33887 104.22427 10.57
837.68634 -634.59106 104.91785 6.7616644
839.16467 -635.11298 104.48361 5.04
838.96155 -632.91125 105.0895 7.2399998
813.20459 -631.98596 104.84848 10.03
838.22577 -632.20013 104.89709 6.17032
838.08282 -631.38257 105.18103 6.5396433
851.22107 -631.02209 104.89286 6.0982609
822.61841 -629.13086 104.41895 9.0200005
851.20154 -630.26306 104.93472 5.3499999
854.51178 -629.44958 104.85331 6.1295815
823.09387 -628.35693 104.2372 10.1
853.90845 -628.60095 104.81804 6.7849908
854.30939 -628.48474 104.66734 6.332922
858.08508 -628.36566 105.3125 5.1999998
823.29346 -626.85217 104.33924 14.13
857.7262 -627.60211 105.16938 5.5475698
858.08948 -627.32928 105.42863 5.5500002
841.52649 -625.39777 104.9004 7.2199998
842.02216 -624.42883 104.92664 9.104475
843.50964 -615.4552 104.87527 5.3299999
836.2688 -613.89172 104.2054 4.8400154
843.64459 -614.58551 104.75075 6.7299876
844.62982 -613.94287 104.80589 5.2335415
844.58508 -613.52521 104.91099 7.5
834.4353 -611.94489 104.21478 7.1100001
832.33783 -596.17108 104.54007 11.785
835.73828 -577.05811 104.68889 5.75
835.6496 -576.43066 104.51659 6.5076675
837.97321 -572.31628 104.75226 5.7037148
837.26196 -571.81262 104.59091 6.77
836.93188 -569.6543 104.71162 7.665
833.4704 -568.63916 104.58899 6.98
834.20459 -568.96515 104.88498 7.4199815
835.22314 -568.56366 104.23692 7.46
837.29962 -568.62268 104.7898 7.8400002
838.12549 -569.03265 104.80001 7.5206251
816.93713 -563.21912 104.92113 10.565001
817.29138 -563.84949 104.72715 7.0075002
816.35181 -562.94708 104.25653 7.0204167
817.74066 -562.74945 104.77608 9.6721954
816.59943 -561.1543 104.23289 8.9806499
817.2995 -561.48157 104.25175 11.837667
820.36572 -558.63428 104.21173 9.3599997
849.71814 -540.63135 104.66753 6.3149996
849.84882 -539.70288 104.55036 6.4088883
769.71252 -512.42896 104.9433 10.466249
770.81091 -513.01025 104.36893 11.61
864.47406 -510.46545 104.23096 8.7600002
865.73523 -508.05875 104.64677 8.7356253
866.73071 -504.90375 104.21329 7.1900001
868.33264 -502.4585 104.31924 6.9400001
867.36426 -501.18192 104.71681 5.3278027
868.42627 -501.24112 105.05336 7.1011877
869.89227 -501.24973 105.06709 5.9331446
868.72705 -500.20776 104.68524 7.1927352
869.4646 -499.8696 104.69815 8.8100147
868.40125 -499.11011 104.7144 9.6825008
872.39142 -498.65137 104.86234 13.439633
872.74969 -497.04907 105.46903 6.4699998
873.97766 -497.51434 104.34016 9.0500002
874.80206 -497.71222 104.49535 8.5100002
856.48975 -480.9136 104.39045 13.64
857.08459 -481.2356 104.52831 12.1475
825.60913 -820.21985 105.94667 7.5799999
826.52881 -820.27893 105.546 7.5799999
825.63666 -819.35876 105.91924 5.3400002
826.55127 -819.41772 105.52084 5.3400002
820.93225 -816.13477 106.39059 15.06
821.80908 -816.01447 106.49109 12.133334
820.92621 -815.1098 106.71756 11.44
821.56128 -815.68823 106.7069 10.796329
880.42273 -724.44354 106.16412 12.2
881.05493 -724.98779 105.78056 7.54
880.26001 -723.43054 105.56705 12.48
880.77777 -724.06085 105.89077 12.2
879.79114 -722.69336 106.11916 7.8600001
889.73499 -723.07886 106.70958 8.96
824.54773 -717.87183 106.72588 11.69
823.16913 -716.07983 106.00262 6.6850004
836.08142 -707.09302 106.65337 9.3299999
836.77014 -706.74414 106.55194 9.09939
837.60339 -707.76624 106.69408 7.7711744
837.07001 -706.01611 106.33787 9.7337379
838.02301 -706.08374 106.6012 8.6737528
837.06342 -704.66406 106.12851 13.337544
837.78564 -704.70502 106.50302 12.273781
839.19135 -704.59662 106.4072 9.8252344
843.98163 -704.16284 106.3569 10.845
835.57593 -703.52112 106.04076 7.77
836.81506 -703.15222 106.43531 9.6459265
838.02808 -703.58069 106.42856 6.7975612
848.59357 -703.64618 106.68681 11.095
836.89825 -701.82471 106.48763 9.4493971
838.0412 -702.30371 106.20857 7.989296
835.95984 -701.22351 106.05434 8
836.68994 -700.87579 105.95929 8.9478197
837.86365 -700.92322 106.07912 8.0386124
838.84283 -700.7663 106.3782 8.1149998
824.68134 -699.9978 106.68772 13.419962
825.02509 -700.02905 106.54091 12.82
835.68231 -700.18719 106.21256 7.8299999
836.87238 -699.5166 105.93606 8.3594217
837.56702 -699.92212 105.98233 8.9565659
838.77423 -699.6333 106.7286 7.8400464
835.85425 -698.23486 105.8965 7.6300001
836.7041 -698.55988 106.096 9.1825638
838.04999 -698.61395 105.94281 10.029861
838.85089 -698.83026 106.25089 8.274684
824.24097 -697.06042 105.54606 8.1724072
835.85669 -696.99469 105.84347 7.8006401
836.59137 -696.88373 105.83661 8.1588335
838.05597 -696.96814 105.84316 8.3370132
845.29272 -696.59509 106.38887 6.52
824.11035 -695.70062 106.1965 11.647408
835.89417 -695.81927 105.78191 8.0614653
837.14398 -695.73602 105.88556 9.6335373
838.54199 -695.62488 105.92442 9.5475225
845.09546 -695.94128 106.1211 7.8699999
824.19495 -694.35028 106.50311 6.9400129
835.81866 -693.3999 105.63937 7.7444992
836.68652 -692.90363 105.8444 8.4981489
888.59167 -693.2804 105.87352 10.53
887.66461 -691.84113 106.23148 8.2894135
888.29834 -692.41052 106.09773 4.9056244
802.40338 -690.07684 105.90845 14.87
836.04285 -690.47571 106.30629 9.3247137
836.68719 -690.72949 106.06476 12.754508
837.68036 -690.39606 105.8784 13.236115
887.5249 -690.99609 106.10919 8.6756248
802.75714 -689.50122 105.96079 12.83278
804.03516 -688.97009 106.0767 12.65
822.72089 -688.86011 105.85848 9.8199997
823.67993 -689.00244 106.28755 10.87
835.79144 -689.14758 106.02179 6.8299999
836.94043 -689.69366 106.24045 9.2828827
837.59778 -689.77332 106.49337 9.3912058
839.1806 -688.86389 105.51584 5.4400001
803.875 -688.25909 105.89069 10.789998
805.64905 -688.06641 105.6799 6.2199998
806.42999 -687.60712 105.64468 7.8299999
822.93378 -688.10376 106.05602 8.6096287
824.12994 -688.18933 106.46953 9.3400002
837.9436 -688.53455 105.85056 8.4241076
839.12659 -688.71301 105.88129 5.4400001
804.82397 -687.42181 105.77118 7.7004943
824.3363 -687.14185 105.98456 8.3467293
825.03149 -686.36377 106.49028 11.664166
806.52863 -685.16321 106.10247 6.9221873
824.91003 -685.62177 106.53808 10.485622
805.604 -684.8363 105.49978 10.400833
807.19666 -684.10547 106.36771 6.4704685
824.61676 -684.65161 105.92088 8.7204685
808.19049 -683.32544 105.9462 7.71
808.81519 -682.91632 105.96216 6.70367
842.27917 -682.85205 106.30963 13.504999
809.18628 -681.91394 106.1257 8.240284
810.07812 -681.67621 105.88843 9.9057293
811.43201 -681.24725 105.62408 8.2287493
812.42114 -681.34296 105.73341 9.9099998
814.8067 -681.22339 105.47672 8.2822218
842.32526 -682.39203 105.49652 12.98
807.58051 -680.97937 106.71359 9.1099997
810.40247 -680.60706 106.52612 9.7150002
811.50482 -680.38232 105.68594 9.2799997
812.93854 -680.58344 105.84441 9.5511007
813.71979 -680.42749 106.07022 11.110023
815.19623 -680.76202 106.00406 11.893333
818.55212 -680.54736 105.94699 10.54
820.24005 -680.05511 105.83854 12.078911
821.552 -680.09845 106.14236 12.074997
822.50018 -680.15009 105.7037 11.087333
808.20972 -679.36713 106.22388 11.14
811.16162 -679.3739 106.05862 10.815001
812.98761 -679.11285 105.97612 12.459093
814.02295 -679.06842 105.99711 9.0541735
816.19391 -679.67731 105.5283 8.9000006
818.97278 -679.16956 106.15607 13.772448
820.23584 -679.35175 105.88671 10.875832
820.98584 -679.32703 106.6572 8.7900352
850.74316 -679.09436 106.58116 9.6042595
807.57642 -677.74957 106.21915 7.9987073
808.95789 -677.87183 106.24281 10.526656
809.93842 -677.57263 106.00302 9.0718155
813.09985 -678.06702 106.05875 12.241627
814.33405 -678.26624 106.62558 9.8813496
815.4527 -677.80365 106.21467 9.3827295
816.37451 -677.72278 106.2114 10.771167
817.54706 -678.2439 106.17808 13.326667
818.69452 -677.98004 106.27835 10.740001
820.46649 -678.57043 105.7763 11.642302
823.6236 -677.85803 106.17934 9.2410154
847.29883 -677.49036 106.72353 12.43
850.14856 -678.34412 106.64909 10.23
850.40558 -678.43237 106.65481 8.6300001
806.31775 -676.06818 106.2177 10.8
807.51678 -677.17688 105.85987 10.002723
808.86377 -676.70361 106.47919 9.6355047
809.68591 -676.87555 106.04469 11.559267
811.8584 -676.22498 106.03522 8.3385162
812.40356 -676.77002 106.12057 10.271711
816.36249 -676.57336 106.15932 10.864777
817.17041 -676.46057 106.37927 12.134239
819.51764 -676.9541 106.10358 11.92211
820.36792 -676.80518 105.97156 12.236952
828.14221 -676.17419 106.70497 11.4
835.97821 -676.18274 106.3421 5.5100002
847.15778 -676.53387 106.65328 10.718265
806.7934 -675.61365 105.75421 10.555
809.70239 -675.30737 105.95616 10.448164
812.71979 -675.552 106.10964 7.4926386
817.82074 -675.7099 106.21136 6.2238808
828.29211 -675.19824 106.53417 9.9449997
836.04932 -675.04156 106.42406 9.2878017
836.62268 -674.79773 105.74129 13.498428
846.93976 -675.1037 106.68448 9.2061729
808.87646 -673.99829 106.01884 6.5474997
827.90399 -674.26453 106.37576 14.25
835.63739 -674.06738 106.09259 11.584959
836.54492 -674.70441 106.17887 13.744384
826.4657 -672.7561 106.03839 10.577499
827.79651 -673.10193 106.1446 9.5375004
835.49316 -673.50256 105.71259 10.2325
817.95782 -671.39722 105.54564 6.310235
825.92102 -671.44489 106.19304 8.8450003
826.81384 -671.70178 106.26467 9.6304169
828.31409 -670.98657 105.52869 13.23
842.00092 -671.07471 106.04886 6.3899999
807.45001 -670.31104 105.51868 9.481389
826.60754 -670.0752 106.38757 12.913751
827.86548 -670.27698 105.90705 5.6500001
842.15039 -670.15912 106.02445 6.8299999
826.56421 -668.93262 106.10742 12.949219
827.82672 -669.54535 105.9044 5.6500001
841.90771 -669.25775 106.0396 8
826.42755 -667.26837 106.03945 8.1700001
841.23126 -667.54425 106.44833 8.0900002
841.29431 -668.151 106.57677 8.2449999
821.81128 -666.21747 106.47688 4.9249997
823.29651 -665.91522 106.56082 8.8102913
823.97058 -666.14337 105.67288 9.9695997
826.25946 -666.47937 105.70845 14.967501
827.92432 -666.73486 105.71757 11.9
822.86243 -665.30731 105.79546 10.126719
823.53503 -665.55878 106.24944 8.1000004
826.20142 -665.20764 105.53696 11.27
827.94574 -665.14343 105.78061 12.622499
823.62396 -664.18457 106.65796 7.8400002
826.4176 -663.9436 106.64452 19.950001
827.95947 -664.026 105.54692 13.48
826.30493 -662.83838 106.48647 19.267502
827.90906 -663.28949 105.49112 12.96
842.04333 -660.8916 106.3315 6.6799998
840.23743 -658.96857 105.62251 11.25
839.9231 -657.77063 105.49142 5.5500002
840.22803 -658.06433 105.7983 6.1853852
842.61584 -657.79413 105.99742 6
840.3584 -656.97675 106.51537 6.355
820.09808 -655.66846 106.62043 8.7449999
807.10876 -654.06287 105.55524 13.36
820.53271 -653.59296 106.28387 10.235781
811.354 -651.95203 106.39113 10.19
816.73938 -652.38586 106.29028 10.23
820.3183 -652.95325 106.54974 10.359999
838.19031 -652.4259 106.08135 8.9061003
809.841 -651.13654 106.41691 10.148354
810.93768 -650.80048 106.635 6.9899998
836.50397 -651.20288 106.63338 6.3572888
810.69128 -649.96765 106.37897 7.1700001
814.16797 -650.22778 105.77979 7.4750004
814.79706 -649.92883 105.96484 8.1870241
817.94989 -650.11224 106.15939 10.283889
814.50153 -648.60144 105.8344 7.1898308
816.91589 -648.25171 106.21834 12.68
817.77795 -648.82422 106.13152 9.2001629
807.22186 -647.05774 106.01518 6.29
814.70886 -648.08618 105.56416 8.9459171
820.2832 -645.81561 105.94194 5.6100001
862.4342 -646.10712 105.82246 7.9699998
820.13562 -644.85864 106.11639 10.6
862.20776 -645.18073 106.22061 6.52
866.39862 -645.44891 106.44012 6.3499999
821.86469 -643.71765 106.26503 8.0733337
865.69037 -643.96191 106.1806 7.4499998
859.21033 -642.44055 106.41522 8.3999996
839.00952 -641.37341 105.49381 7.1100001
839.03149 -640.14105 106.07526 7.3499999
820.85492 -638.08362 105.6147 7.04
821.22882 -638.99261 105.79082 7.0999999
832.89514 -638.90259 105.92969 9.7200003
838.22815 -638.48309 106.22151 6.79
831.91345 -637.34589 105.54053 9.256649
838.52533 -635.21759 105.47916 6.4349904
812.729 -632.12177 105.56488 8.7649994
858.40356 -628.14392 105.4785 5.1999998
842.63025 -625.75269 105.51582 8.1199999
842.00812 -624.55133 105.91714 10.687141
841.57159 -623.94275 106.07793 6.7139196
843.31812 -614.97571 105.52525 6.7600012
831.85321 -595.11169 106.27486 8.7653866
832.5166 -595.93384 105.85623 8.7600002
836.70905 -569.55249 105.84621 7.6066666
769.72467 -512.51062 105.90586 11.169445
769.21539 -511.94571 106.12651 10.39
867.55585 -499.89835 106.20794 7.6082082
868.47626 -500.21982 106.4198 6.9597931
869.49011 -499.89014 106.18391 8.8191414
873.81195 -499.52319 105.9365 9.0010862
867.5769 -498.95343 106.5797 8.3581142
868.63788 -499.1442 105.4772 7.4025002
872.35486 -498.58307 106.03469 10.759854
873.60779 -498.88715 106.1964 8.1027784
874.52484 -499.19693 105.96321 7.5400009
872.82336 -496.89545 105.9017 6.6799998
873.57007 -497.07892 106.45618 9.0500002
874.39246 -497.27463 106.62433 8.5100002
826.76917 -1105.0001 107.8176 6.6599998
826.80701 -1104.1262 107.92487 6.1300001
825.64563 -820.20374 106.97581 7.5799999
825.67303 -819.3429 106.94257 5.3400002
816.60803 -814.97742 106.97778 14.06
817.97144 -815.04626 107.01633 14.06
821.55505 -815.80396 106.99677 10.675347
816.68115 -814.11902 106.94991 13.48
818.03619 -814.18732 106.98834 13.48
837.31726 -767.66339 107.76628 8.1599998
838.65967 -745.43579 107.56335 12.059999
838.98438 -745.37988 107.19613 12.496667
880.44263 -724.93555 107.58183 9.8699999
881.0343 -724.92529 107.04692 7.54
879.99445 -723.63062 107.12538 12.48
880.8407 -723.89233 107.26292 12.2
890.15009 -723.69617 107.0435 7.9712501
823.71765 -721.81409 107.8247 7.04
837.92944 -722.99854 107.89155 8.0725002
879.38544 -723.06329 107.43976 7.8600001
880.1861 -722.74481 107.56715 10.17
889.83533 -722.86597 107.46455 8.96
823.89697 -720.71625 107.80724 6.8199997
838.19696 -721.02533 107.89844 8.9277344
823.99323 -720.03986 107.86188 6.1888885
836.7594 -719.38159 107.90337 7.8899999
837.97992 -719.88568 107.85641 8.5742416
824.03912 -718.19635 107.85629 6.0799999
825.43372 -718.34625 107.88204 9.1700001
836.85968 -718.90869 107.71195 8.2899046
838.08569 -718.578 107.83124 8.6291924
839.13953 -718.95343 107.87064 8.7200003
824.71802 -716.78918 107.54868 11.648871
825.07861 -717.38965 107.89886 10.512701
836.80389 -717.12744 107.7492 8.5266676
838.04449 -717.55402 107.79822 8.5687447
844.94446 -717.35413 107.85152 7.4899998
845.09894 -717.08142 107.89186 10.83
822.88611 -715.81396 107.26312 6.6087499
824.68176 -716.26837 107.22327 9.2007504
836.9444 -715.79187 107.65067 8.1969357
838.19232 -716.21887 107.76625 8.4668179
838.98468 -716.17261 107.8371 7.9251413
822.83856 -715.03027 107.90327 6.9899998
837.78357 -714.89941 107.44486 9.244441
839.26471 -714.87848 107.7671 9.4384699
837.07684 -713.79736 107.41983 8.8126879
837.77606 -713.9129 107.47289 8.7736959
839.03589 -713.40741 107.61226 9.1357164
820.95807 -712.01178 107.46832 8.4399996
836.90381 -712.17426 107.41268 9.3271275
837.77637 -712.27045 107.23989 8.6326008
821.08252 -711.04126 107.48769 9.5711308
825.02612 -710.65137 107.84005 12.693769
835.12061 -711.54749 107.8738 11.37
837.01025 -711.01849 107.18575 8.9972858
838.02478 -711.11218 107.19567 9.7577267
838.7417 -710.76038 107.33047 8.1514778
837.00024 -709.66333 106.93748 8.5826054
837.58112 -709.78296 106.98238 11.387712
839.31848 -710.18774 106.96386 7.7800002
840.17896 -709.64771 107.86761 8.7821159
835.74677 -708.21204 106.80638 8.5650005
837.1048 -708.59119 107.02328 9.3705387
838.32941 -709.02136 107.1751 9
838.93774 -707.91656 106.96922 7.79
842.3551 -708.83691 107.34076 13.48
836.96954 -707.30945 106.78056 9.4674902
837.58508 -707.64032 107.11193 9.5041924
839.44788 -707.58282 107.00554 9.54
844.09363 -706.66748 107.68491 5.0914812
835.77576 -706.18066 106.94206 8.534687
836.85693 -705.98438 107.53806 9.9277201
837.85547 -706.10474 107.27163 8.8778267
843.47839 -705.42755 107.87994 4.3400002
836.05981 -705.00879 107.88622 14.119991
836.97119 -704.7666 107.377 12.413328
838.21619 -704.93213 107.70312 13.907185
839.04767 -704.6394 107.49242 15.283443
847.29309 -704.10809 107.32964 10.09
836.97021 -703.07739 107.4313 8.3804684
838.23419 -703.8299 107.83081 9.1393623
839.48425 -703.60669 107.93628 11.33246
840.33691 -703.81372 107.82054 10.075001
844.02167 -703.7962 107.6037 8.2816668
846.99701 -703.92847 107.19583 11.852901
838.19055 -702.24719 107.28815 7.3919616
836.97949 -700.86389 107.00963 7.5050001
843.40137 -700.85315 107.85558 6.79
824.57556 -699.79718 106.95367 12.078816
843.16602 -699.0448 107.78401 7.9000001
844.66943 -699.52271 107.24628 8.1099987
845.18567 -699.27405 107.84853 7.2399998
816.83057 -698.56152 107.87872 7.3800001
817.16333 -697.90015 107.89833 9.8896885
837.57764 -698.36469 107.21105 8.8126564
843.01196 -698.04785 107.91176 8.7299995
844.45117 -698.07202 107.64516 9.165
824.08496 -696.97321 106.9118 9.0124979
842.35712 -697.13062 107.81817 6.3200002
844.59827 -697.13879 107.64677 9.8655338
845.34235 -697.35065 107.8829 10.204815
824.16327 -695.91113 107.67986 11.436583
844.70386 -695.15814 107.25126 9.2928362
845.58582 -696.23126 107.47531 10.200001
824.48157 -694.22601 107.85379 8.1740627
844.95996 -694.86572 107.86159 11.905
842.9632 -693.29401 107.23993 6.505012
886.40186 -692.95569 107.49704 18.790001
842.89807 -692.1886 107.55235 9.0550003
844.33752 -691.64001 107.14719 5.2409258
886.39136 -691.95673 107.30306 20.257862
887.55206 -691.94965 107.21942 10.037614
802.42072 -690.77979 107.13187 8.1000004
836.90784 -690.37036 107.07161 14.555517
837.46027 -690.25934 107.28103 12.145226
843.43506 -690.56458 107.44312 9.402647
887.00305 -691.18909 107.08868 10.565519
887.77557 -690.86578 107.47538 8.1999998
802.88867 -689.59912 107.5324 9.0766668
823.61255 -688.87262 107.02893 10.87
837.12238 -689.77789 107.1365 12.08279
823.92328 -687.88397 107.48028 7.7267127
824.36078 -686.83417 107.24897 9.8478355
825.02075 -686.30615 107.06393 11.876666
805.51904 -685.31409 107.91903 7.9019337
806.47998 -685.15491 107.37321 7.6099377
807.11377 -685.42004 106.91158 8.0200005
824.89685 -685.60577 107.26329 10.478637
806.28314 -684.80988 107.93607 7.0900002
807.27808 -684.13416 107.28632 6.0349998
822.14862 -683.89746 106.80898 6.0599999
824.77399 -684.74866 107.1917 5.3800001
808.1095 -683.1394 107.1971 7.1300001
809.23462 -682.70398 107.12454 9.8967772
816.02393 -683.10266 107.83451 8.3857498
822.52142 -683.30511 107.37767 5.3299999
808.75977 -681.87555 107.22226 8.214015
814.35242 -681.83337 106.94061 9.21
814.94104 -682.16406 107.3842 6.48
806.42334 -680.61316 107.06686 6.8150001
807.45215 -680.73755 106.97693 9.1099997
808.58075 -680.45349 106.9364 9.5666666
810.07977 -681.02173 107.19685 7.3400002
811.70776 -680.8717 107.47832 10.927656
812.28448 -680.35327 107.23105 8.4899998
813.88586 -680.84656 107.01462 9.6114407
815.302 -680.41211 107.11656 11.130054
816.43781 -679.92889 106.94561 6.8299999
846.85535 -681.08502 107.85738 8.6400003
851.35132 -679.92096 107.36411 7.3200002
807.50793 -679.79346 107.99338 5.7399998
808.70929 -679.27142 107.40275 7.2733331
811.72418 -679.80554 107.39486 10.310001
812.96606 -679.21729 107.53128 11.396149
815.2475 -679.68671 106.9354 9.9866667
816.68982 -679.09363 106.92763 10.41
819.24634 -679.03278 107.42855 9.0250006
821.28326 -679.77881 107.008 9.7900181
850.60052 -679.00446 107.80655 8.6120815
810.37836 -678.45038 106.913 11.630625
811.6814 -677.77734 106.99274 13.129821
813.69751 -677.99866 107.28986 12.322905
819.46503 -678.49554 107.27409 12.693517
820.39716 -678.28009 107.13318 10.528755
823.63373 -678.06873 107.28157 9.4634714
826.57416 -677.35852 107.36205 5.3499999
841.97656 -678.07733 107.36985 10.208605
847.15619 -677.36554 107.81384 12.323284
847.98871 -678.20978 107.8698 11.84
850.00867 -678.35693 107.69554 10.23
850.32434 -678.17615 107.67426 8.6300001
808.76575 -676.57751 107.70653 8.1058083
809.89972 -676.6347 107.18925 10.505325
811.81305 -676.41162 107.19209 14.692761
812.12695 -677.13141 107.12614 12.704993
813.9892 -676.75476 107.07673 7.5900002
815.98871 -677.15228 107.27023 11.951459
817.92786 -676.80432 107.53651 5.1900001
818.59833 -676.65704 107.18349 7.0749998
826.46698 -676.32928 107.11926 13.403333
847.18195 -676.72552 107.68404 12.893826
809.32104 -675.62781 107.38192 9.9049978
818.71082 -675.42847 107.39998 8.3599997
826.50964 -674.98743 107.17629 13.85125
833.3136 -675.49774 107.60648 6.1999998
835.55499 -675.06384 107.00807 13.979649
836.22931 -674.83838 107.37661 11.97533
846.69592 -675.36218 107.84459 11.303409
825.05975 -674.03082 106.8765 11.66
826.49207 -674.06189 107.56178 12.0825
830.35034 -674.18744 107.86314 11.913334
832.9505 -674.58472 107.46452 8.2799997
834.62042 -674.16888 107.78753 8.5795174
835.62573 -674.10901 107.69371 7.9544663
836.33221 -674.52399 107.29546 14.078878
839.77637 -674.2464 107.892 8.4916668
846.28174 -674.72473 107.41931 6.3299999
825.0802 -673.14496 106.99788 18.5
826.4718 -673.24902 107.68592 11.87
839.57922 -673.00525 107.43153 10.08
826.40991 -671.03076 107.16881 17.66
843.88861 -671.45966 107.35526 8.5349998
825.82703 -670.26862 106.76103 9.2350006
843.67126 -670.30896 107.18797 9.9899998
825.73987 -669.47626 106.84507 8.6700001
843.58124 -669.67505 107.1209 9.8699999
843.23621 -667.2027 107.06142 8.6800003
823.60828 -666.67224 107.15816 9.1899996
843.08105 -666.36176 106.92706 10.03
860.59332 -666.58099 107.54116 9.0699987
822.84882 -665.23755 107.31953 8.2316036
823.56213 -665.36047 107.14093 7.9874334
860.06427 -665.34607 107.69984 6.7550001
860.38141 -665.63617 107.91008 7.5500002
823.46698 -664.58704 107.68301 8.5685406
841.9729 -663.86609 107.91304 6.52
841.9408 -662.54547 107.93465 6.3662205
842.80573 -662.27228 107.14578 6.5025001
842.51404 -661.57959 106.7702 5.8800001
843.49445 -661.82959 107.30917 14.96
841.97375 -660.03278 107.29834 7.3563704
843.13574 -660.22498 107.89398 7.1849995
840.86914 -658.95691 107.89038 6.0700002
842.24561 -658.94373 107.89774 5.3299999
839.83862 -657.45032 106.89189 6.0100002
840.37152 -657.81305 107.17625 7.6224084
842.49017 -657.22058 106.86786 9.2299995
842.7005 -657.1922 107.07562 8.5220985
827.4306 -656.08948 107.35638 8.54
840.25323 -656.77112 107.13005 7.1341343
820.21417 -655.01611 107.2971 9.9311495
821.10199 -655.1875 107.17403 8.7337275
827.43823 -655.11078 107.36963 13.579999
820.07196 -654.08051 107.37372 9.2812929
821.0899 -653.58099 107.15926 6.9259553
827.48975 -653.99512 107.59767 9.21
829.05774 -654.08331 107.99136 13.24
837.05719 -653.69397 107.13647 6.1863594
820.15424 -652.85852 107.39096 7.0369463
835.46661 -652.42816 107.76251 8.6015635
836.883 -652.42773 107.33971 10.59754
837.87036 -652.716 106.88609 9.6190166
847.69318 -652.4046 107.37194 7.6966681
835.30762 -651.30524 107.75939 6.760963
837.08405 -651.17493 107.40469 8.2148867
810.73047 -650.59021 106.9262 6.9899998
810.9212 -649.77777 106.97451 7.070015
821.49976 -644.76697 107.26686 7.0456438
866.01514 -644.65588 106.9534 8.9799995
821.79016 -643.27844 107.88956 8.8500004
859.56464 -643.6051 107.08836 9.5523081
839.7702 -641.87695 107.2533 6.2249999
859.21558 -642.26898 107.61639 9.6324997
860.40948 -643.00439 107.85885 8.1499996
837.23804 -638.81677 106.98473 6.0117774
837.92554 -638.05902 106.85937 5.9000001
838.15112 -636.08649 107.03603 8.54
838.18195 -634.60626 106.98585 14.520454
831.94269 -594.99841 106.98263 13.52
769.92706 -512.29047 107.83627 12.073236
770.88257 -512.66882 107.8629 12.34
769.38818 -511.76639 107.55689 16.639393
867.33282 -500.0748 107.20446 5.3268752
868.59979 -500.20013 107.49944 9.4984932
869.45636 -499.89929 107.7059 10.5
874.05725 -499.47858 107.00161 10.33
867.53845 -499.11456 107.57848 5.8625002
868.29889 -499.23102 107.98554 9.6999998
872.37262 -498.28961 107.48604 10.155
873.52759 -498.73767 107.41552 9.0287495
871.99329 -497.92383 107.76282 9.9650002
826.90979 -1104.1997 108.08484 6.1300001
834.64062 -1040.8879 108.86317 9.5299997
834.62286 -1039.9955 108.84065 10.74
842.86768 -835.09302 108.75385 12.275234
824.96118 -819.02527 108.2877 10.535001
818.06396 -815.34442 108.80667 9.9200001
822.76624 -814.96289 108.89681 14.901667
816.29248 -814.49146 108.29168 13.77
818.29102 -814.35773 108.65199 12.459999
837.09521 -767.64978 108.50187 8.1599998
837.21655 -766.77686 108.40033 8.1700001
837.4856 -767.55591 109.11449 8.1599998
839.80194 -741.96747 108.58582 11.075
840.14703 -742.06866 108.31758 10.61
836.88611 -735.16003 109.28812 7.7199998
838.18085 -732.40826 108.9028 8.9468365
837.92859 -731.16644 108.98266 8.5332279
838.87482 -731.0127 109.27122 8.5600767
838.03186 -729.92157 108.93629 8.6787167
839.15002 -730.26495 109.10265 9.8042679
838.06964 -728.78271 109.04513 9.0389662
823.5835 -727.62793 108.7012 12.726875
838.104 -727.61621 108.95919 9.2229071
845.36591 -726.92395 108.88448 13.449993
823.85858 -726.18085 108.45244 8.2946682
825.33081 -726.1012 108.85629 12.42
838.24194 -726.09625 108.80026 9.4971933
838.94214 -726.16028 109.03275 9.5858822
848.31128 -726.46411 108.82957 12.459397
825.33362 -724.96478 108.7806 9.9499998
837.76801 -724.69281 108.53374 9.5713758
839.07123 -725.10278 108.95686 11.422297
880.53729 -725.35187 108.62268 7.54
880.88391 -724.92834 108.81298 7.54
837.04785 -723.52386 108.29523 7.7066669
837.83325 -723.84509 108.94817 9.8295259
839.05042 -723.85712 108.7598 10.255473
845.35156 -723.82513 108.86301 12.53
880.24481 -723.91254 108.99363 12.312
880.75574 -723.86316 108.3369 12.2
889.45148 -723.27692 108.76923 8.96
890.15027 -723.7381 108.39998 7.8299999
838.10083 -722.65411 108.73959 9.9100647
839.32953 -722.60968 108.97466 8.8781862
840.1684 -723.0094 108.86098 9.04
879.47998 -722.81451 108.89481 7.8600178
819.02222 -720.77679 108.49323 11.691383
823.95166 -721.01489 108.49139 10.580151
836.91699 -721.45148 108.87993 7.3299999
837.79871 -721.34741 108.22423 9.5412722
839.00171 -720.9679 108.4571 9.126667
840.33948 -721.57031 108.49635 9.71
845.05273 -721.30469 109.06129 10.62375
845.13696 -721.32599 108.85218 12.291714
821.33417 -719.8847 108.98736 11.928735
823.94043 -719.76025 108.73986 9.3887815
838.28058 -720.15308 108.53464 7.9652271
839.11035 -719.73157 108.30472 8.4647598
821.31244 -718.99011 108.66009 8.2799997
822.26379 -718.98151 109.05296 5.5299997
824.25854 -718.45319 108.7132 8.4686384
825.27826 -718.29333 108.29877 9.1699905
836.98932 -718.88837 108.14307 10.49321
837.81 -718.92279 108.1965 8.7839584
838.974 -719.04883 108.22655 9.3432913
845.17804 -718.74603 108.96515 7.3887496
824.98822 -717.24542 108.73306 10.829509
837.09857 -717.66138 108.12406 9.4399996
838.1347 -717.35089 108.11288 9.071126
839.06812 -716.83191 108.19661 8.8493233
844.98352 -717.12604 108.25902 10.352477
825.01575 -716.00647 108.96932 8.1225529
837.75562 -715.8241 108.1191 8.7303085
838.80566 -715.6214 108.04211 8.1005917
822.81952 -715.19611 108.49627 6.6899414
837.7085 -714.7179 108.0354 9.491725
839.17767 -715.06152 108.2711 9.8311834
837.87195 -713.80481 108.01935 10.881275
838.94806 -713.80841 108.09324 9.4457922
820.86133 -712.4455 108.9327 6.96
820.98376 -712.51562 108.64852 6.96
821.74219 -711.06964 108.65643 9.8833342
825.05811 -710.51392 108.81853 10.377803
