# .PCD v0.7 - Point Cloud Data file format
VERSION 0.7
FIELDS x y z intensity
SIZE 4 4 4 4
TYPE F F F F
COUNT 1 1 1 1
WIDTH 1273
HEIGHT 1
VIEWPOINT 0 0 0 1 0 0 0
POINTS 1273
DATA ascii
18.462627 2.5981233 2.6777263 10.6
20.050266 2.6244209 2.7253466 16.650002
-10.088775 3.0072174 2.5350266 9
-9.4192038 3.0172076 2.6049387 12.6
-9.159193 2.8444166 2.6622097 26.1
-6.2670889 2.7956781 2.6401637 16.9
-4.7021461 3.0071793 2.5431569 8.8999996
-4.067152 2.8707895 2.6304348 10.9
-3.717941 2.9333103 2.7032104 10.15
-3.3158116 2.8637161 2.7102938 12.5
-3.0139432 2.778429 2.7495923 11.8
-10.032821 3.2612662 2.652369 7.5999999
-9.7451935 3.1041212 2.5724211 12.2
-9.3846188 3.0256639 2.744184 7.3000002
-3.8900547 3.124784 2.5545368 9.4499998
-3.3269491 3.1217141 2.6488817 14.85
-3.1062765 3.0929027 2.7188983 15.5
-2.8926823 3.1256468 2.7515421 11.8
-2.7608609 3.1566608 2.6049325 13.8
0.023868084 3.0858858 2.6207743 22
18.325462 3.1583347 2.7407711 10.5
20.910337 3.2282035 2.6432319 9.6499996
22.835018 3.257642 2.6293073 20
22.955242 3.250324 2.5445366 13.3
-9.658082 3.3525977 2.5667362 14.6
-6.3209553 3.4395227 2.5986192 8.3999996
-5.9694724 3.3477182 2.5558913 19.299999
-5.6173697 3.3234458 2.6777978 9.8500004
-5.4046707 3.4237082 2.6549373 8.7250004
-4.9210424 3.4050608 2.7134967 12.674999
-3.8545427 3.3948517 2.6171315 8.3000002
-3.6335435 3.3672693 2.6748118 6.1999998
-3.3543019 3.3443022 2.6461234 11.900001
-2.8977764 3.3488722 2.6350436 24.700001
-2.609026 3.453665 2.6960535 12.4
16.781879 3.4601865 2.6836953 17.799999
18.780172 3.4229102 2.6233273 6.9750004
20.492542 3.5159216 2.6311903 6.9000001
20.794075 3.4550769 2.7388635 25.700001
21.005718 3.4247851 2.7297499 14.78125
-10.155334 3.5843077 2.5333397 12.2
-7.9596605 3.6718712 2.6814268 9.6999998
-6.2149119 3.6541283 2.6777341 12.7
-5.9242034 3.6786163 2.6206131 15.55
-5.7121668 3.7226548 2.6165271 7.75
-5.3602848 3.5440011 2.7568808 9.1000004
-4.9244995 3.6575212 2.704407 14.549999
-4.6549788 3.6222138 2.6162548 20.5
-4.3192525 3.6476164 2.6275029 14.4
-4.2784786 3.5641618 2.6947668 14.799999
-3.9283655 3.5670891 2.665801 7.5999999
-3.5839405 3.6224923 2.6494145 10.85
-3.4266639 3.7234931 2.7332156 12.5
-2.9056194 3.6574411 2.6588762 11.549999
-2.7057846 3.6502991 2.5342512 12.95
-2.3865709 3.5969677 2.7572503 17.799999
-1.9576933 3.6618071 2.6906345 16.5
2.2063951 3.7425594 2.6286826 9.3000002
16.256243 3.7093406 2.6975696 10.6
17.773457 3.540098 2.7081518 11
18.141933 3.6129313 2.6929045 6.9000001
18.482126 3.5808387 2.7485433 7.0999999
18.727589 3.6394434 2.7473407 9.4499998
18.908979 3.6686494 2.6035061 7.5999999
20.043991 3.7332845 2.5881538 21.700001
20.233259 3.6894171 2.6198375 13.8
20.603539 3.7532828 2.6371145 20.700001
20.883528 3.7350378 2.709523 24.4
21.085451 3.6726949 2.6653252 15.349999
21.251789 3.5994596 2.7236743 14.475
-10.05422 3.8440747 2.6120908 15.3
-8.5619659 4.0080652 2.602052 9.3999996
-8.0500135 3.8974462 2.5296195 16.424999
-7.7177677 3.9789572 2.6502922 18.299999
-7.2649946 3.8821971 2.5972962 17.1
-6.0922856 3.8306155 2.7266588 16.4
-4.8987122 3.9805064 2.7640204 18.200001
-4.6302328 3.9747066 2.6568899 8.8000002
-4.5142431 3.9750395 2.7160244 18.700001
-4.0993829 3.9869733 2.7280102 12.3
-3.8570323 4.0185814 2.770303 9.6000004
-3.585485 3.95437 2.6059332 14.325
-3.3991628 3.9156935 2.7091479 13.012501
-3.1039822 3.8795979 2.6655409 11.416667
-2.9149642 3.8703728 2.7012849 14.2
2.8967195 3.8051958 2.5436087 19.200001
19.986074 3.8837421 2.687892 14
20.871332 4.0006886 2.6054413 6.8000002
21.031153 3.971509 2.6497285 8.5500002
21.241245 3.9133983 2.6733484 13.950001
21.979946 4.0126081 2.5875139 20.4
-7.6879826 4.1500778 2.5725279 13.400001
-7.3284397 4.2688003 2.5825915 11.7
-6.683269 4.1556745 2.6505771 12.583333
-6.5396681 4.1266208 2.6052222 23.6
-6.1718931 4.0678391 2.6371713 12.7125
-5.3961039 4.1214314 2.7463913 12.525
-3.7776487 4.1930084 2.5983534 19.200001
-3.3048964 4.2291512 2.5712693 15.1
-3.1357164 4.0717068 2.6230969 11.200001
-2.9400771 4.1317 2.6479461 12.233334
-2.7668059 4.1152754 2.7421257 17.5
1.1930437 4.1493597 2.5331581 8.6000004
1.617038 4.1822338 2.6425309 12
16.697819 4.0557394 2.6525881 13.3
17.297365 4.0711174 2.7053599 6.5
19.785103 4.041944 2.6730196 9.8000002
19.936836 4.1761837 2.7245097 17.820833
20.392467 4.2226911 2.7265215 21.700001
21.04155 4.196918 2.6367815 12.979167
21.311913 4.0887189 2.7211621 12.355556
21.434473 4.1661315 2.6581419 16.5
22.509169 4.1797872 2.6789706 10.75
23.428225 4.1716785 2.6383247 16.4
23.606297 4.125309 2.6710415 7.5999999
28.175709 4.1947708 2.644563 8.3000002
-8.3285151 4.4828939 2.6648254 14.9
-8.1762638 4.3766437 2.6143682 17.4
-6.9190788 4.3022051 2.5507493 30.1
-6.4089499 4.3095884 2.6871381 11.1
-6.0872755 4.2879395 2.6416466 9.3000002
-5.894341 4.2935114 2.7601128 13.4
-5.7068219 4.30726 2.5576334 11.85
-5.3199711 4.2883811 2.681381 14.6
-3.3737187 4.4256072 2.6844378 12.950001
-3.2408001 4.3929086 2.7545691 8.5
-2.5548084 4.4676919 2.6530864 15.875
-2.1469128 4.4435973 2.6954565 10.650001
-1.9653225 4.4305944 2.7472806 12
2.3407478 4.3377686 2.6977458 11.7
8.5035944 4.3395495 2.6082428 14
18.555578 4.3134661 2.5316565 11.15
20.550587 4.3696012 2.5430455 13.8
21.072691 4.4475002 2.6089065 12.352778
21.280857 4.3048029 2.6910205 9.5500002
-8.3402348 4.7763844 2.5961909 10.5
-5.9195633 4.5819693 2.6245542 14.8
-5.6806016 4.623364 2.6596344 12.033333
-3.8382838 4.5827994 2.5537655 6.1999998
-3.093842 4.5505905 2.6884089 10.6
-2.9780812 4.7650943 2.7119274 15.8
-2.6542859 4.6666384 2.6960514 11.85
-2.519362 4.7171941 2.6218948 7.3000002
18.058193 4.6091557 2.6725686 7
18.405262 4.5987749 2.5891304 14.7
20.174156 4.5498981 2.7194276 16.799999
20.472681 4.6223426 2.7063246 6.6999998
20.8456 4.6803017 2.5900879 9.4499998
21.053059 4.7075644 2.6917908 12.049999
21.265079 4.6410074 2.6197529 13.441668
21.528088 4.6733217 2.670661 9.25
22.048132 4.5911121 2.7516127 18.4
28.907284 4.7572012 2.7517805 18.4
-12.110771 4.9698734 2.6785908 10.8
-6.1880226 4.8959136 2.5814483 10.65
-5.857038 4.935998 2.5350962 14.1
-5.208159 4.9416819 2.7227061 10.5
-4.0216675 4.8815022 2.5247848 16.799999
-2.890841 4.9004488 2.6768124 15
-2.638495 4.9673314 2.7537217 13.25
-2.4144263 4.952589 2.7011442 17
-2.2533014 4.8489552 2.7215643 17.1
-1.8263329 4.9994617 2.7535028 11.6
2.2609148 4.9355421 2.5408378 12.2
18.51432 5.0191312 2.5913131 7.0999999
18.698048 4.9258146 2.5887957 7.0999999
20.521402 4.9940958 2.5425782 6.8000002
21.010418 4.8823071 2.6954169 12.110416
21.361383 4.9228063 2.6821005 16.566668
22.068729 4.8944907 2.7381802 18.125
-6.6270475 5.2740402 2.7044539 9.1000004
-6.0756197 5.1559772 2.6512952 14.3
-5.9405279 5.1060133 2.6503737 15.05
-5.3640814 5.2388978 2.5925281 13.862499
-4.7390356 5.2612333 2.7656679 15.6
-3.0101631 5.0704327 2.6822751 11.6
-2.5713415 5.1308851 2.7038381 22.700001
-2.3837934 5.1002712 2.6649647 16.9
-2.2095108 5.1239953 2.5358043 18.299999
0.88010037 5.2632999 2.7080443 21.200001
3.9828262 5.0524044 2.5848978 8.8000002
21.013359 5.1219368 2.7017224 8.4093752
21.260866 5.2175689 2.6659305 12.743751
-6.4393682 5.4937315 2.6895239 10.4
-5.9737816 5.3174725 2.6277089 17.700001
-2.8620129 5.4801235 2.5825911 18.85
-2.7001848 5.4025803 2.6671603 13.75
-2.3405061 5.3931618 2.5294049 13.5
-0.20107889 5.496479 2.6218963 14.9
2.7662096 5.3923235 2.6804461 16.6
18.461805 5.4343128 2.6724911 9.5
20.830072 5.4465337 2.6712728 11.24375
21.284775 5.4393816 2.7042305 8.1750002
21.742842 5.3506489 2.6788304 11.9
23.539711 5.4956188 2.73281 13
23.767864 5.4254651 2.7083797 11.5
-10.480419 5.6501217 2.6216388 22.5
-5.6304836 5.6126957 2.7418823 13.6
-4.8820128 5.7167459 2.7590187 25.466667
-3.6434348 5.7125282 2.7478056 10.25
-3.2846942 5.5697045 2.5536983 12.2
-3.1384985 5.7360349 2.7514038 14.85
-2.8362613 5.6778526 2.6386132 16.75
-2.0429118 5.7305503 2.6520922 11
-1.7224923 5.6215482 2.5673974 7.4000001
-0.82217312 5.5968094 2.5232615 16.799999
20.239456 5.7886496 2.6612864 6.0999999
20.589388 5.7133298 2.7248855 16.299999
20.759464 5.7049432 2.6399629 11.7
21.032778 5.6889715 2.6598134 14.3125
21.503626 5.7482662 2.6719201 13
22.089142 5.7883372 2.7461751 27.799999
22.207975 5.7681885 2.6759257 16.5
-6.165895 5.8389549 2.5308511 7
-5.543942 6.0361977 2.6935043 9.8000002
-4.9642787 5.9287486 2.738615 10.4
-3.1606407 5.9424214 2.6680169 12.40625
-2.9007235 5.8948479 2.6204505 14.299999
-1.9039389 5.8344212 2.6415062 13.7
-1.3775173 5.9265041 2.6003616 14.516666
0.71438313 5.9929123 2.6999331 8.6000004
1.0346694 5.9747877 2.5564535 18.4
1.9323792 5.9701338 2.5485766 8.6000004
3.5579541 6.032402 2.7160883 6.8000002
10.008793 5.8043618 2.6908371 6.5999999
20.565323 6.0168767 2.5325978 14.2
20.799496 5.904398 2.6941357 13.654166
21.245239 5.9120421 2.6194282 10.75
28.381346 5.8957119 2.7512715 7.4000001
29.419479 5.8456697 2.5310805 13.8
-10.806179 6.2138004 2.7705302 20
-8.2893085 6.2345791 2.7020674 11.2
-7.9468651 6.1436434 2.6878734 10.55
-7.7741985 6.1818256 2.6537163 9.5
-3.6016383 6.1018066 2.580693 8.3999996
-3.5055807 6.0595226 2.711271 26
-2.8882246 6.1710014 2.6615973 11.45
-2.7472665 6.0899334 2.659883 10.05
-2.3176394 6.1004643 2.5831709 6.5999999
1.466949 6.1696959 2.5330215 16.299999
5.9089785 6.0861382 2.7468338 11.3
15.920433 6.1080017 2.6567369 7.3499999
20.79763 6.1306744 2.6237109 11.833334
21.098358 6.0542002 2.7588158 11.775
22.285809 6.0642128 2.6627381 19.200001
22.53878 6.1203108 2.7286091 8.8000002
-11.126118 6.4143348 2.665581 12.7
-2.6309185 6.4155412 2.6428015 16.816666
-0.8907274 6.4176168 2.6821675 15.5
-0.24809504 6.5445852 2.6623867 7.0999999
1.098371 6.4046307 2.712419 12
15.900065 6.303833 2.7086356 6.1999998
21.164675 6.4379396 2.7096052 7.6999998
21.238312 6.5091209 2.6202435 11.5
22.44441 6.3601532 2.6415429 9
23.043518 6.4753218 2.6759574 27.1
23.213369 6.4392438 2.7657065 7.0999999
24.828609 6.4170718 2.6537676 17.200001
-11.457904 6.681354 2.5302978 7.1999998
-11.071346 6.6496291 2.6825275 8.6999998
-6.9584746 6.6754789 2.5973666 23.5
-6.6086593 6.7552767 2.5966191 8.5
-4.5514121 6.6056867 2.6413119 14.6
-2.7030439 6.6788912 2.6386771 12.9
-2.5007279 6.574461 2.7135932 22.9
21.24498 6.7038665 2.6952093 12.725
22.327856 6.6854353 2.5843601 12.1
22.444962 6.7191997 2.7002077 12.6
22.917286 6.7634177 2.5715508 17.4
23.981798 6.7738738 2.536592 8.1999998
-11.394178 7.0086303 2.5736723 12.2
-10.919191 6.9772711 2.6703937 8.8999996
-10.738661 7.00278 2.5607057 8.3000002
-10.578394 6.853919 2.6117058 9.5
-8.6349373 6.9726586 2.7036948 6.3000002
-8.5405655 7.0381045 2.5330324 6.3000002
-7.2315412 6.8428917 2.7341876 6.9000001
-3.2066076 7.0224285 2.765775 8.6999998
-2.9541264 6.8545389 2.6122298 9.3000002
20.707617 6.9220486 2.6651382 11.35
21.137234 7.026947 2.693819 8.1000004
21.219585 6.8706613 2.7455518 9
22.29641 6.8693471 2.6562271 11.45
23.552303 6.8268719 2.7113414 6.9000001
23.97781 6.9225845 2.5657101 9.6000004
-11.689265 7.2032676 2.71229 6.5999999
-11.041592 7.1962337 2.7684979 11.6
-9.6472902 7.2837224 2.5522387 8.6999998
-6.6939626 7.1343536 2.6465411 10.022222
-6.3147392 7.2119055 2.7602782 11.4
-5.9141169 7.3027186 2.7421165 22.200001
-4.6638198 7.30621 2.6656551 10.8
-3.1451879 7.0753703 2.662142 9.4499998
-2.9925723 7.2440224 2.5893848 9.1999998
-1.9493551 7.1717072 2.5483508 8.1000004
-1.2633104 7.1874771 2.7609124 7.4000001
-0.080907583 7.1019521 2.5242422 9
1.5481107 7.2256851 2.6474748 8.3000002
15.048712 7.170001 2.5793471 12.3
17.939018 7.1937861 2.7283902 7.1999998
18.300407 7.0873795 2.7399759 6.0999999
20.522062 7.2603598 2.7278132 11
20.687494 7.0972939 2.70629 13.1
23.325869 7.1054592 2.7528467 8.1999998
23.963718 7.1293221 2.5306098 11.1
-11.392706 7.3704891 2.6259322 11.4
-7.3604641 7.3669739 2.5534606 25.700001
-7.3030195 7.5300598 2.7365265 11.8
-6.6495361 7.5449347 2.5818353 7
-5.867537 7.3724041 2.5437074 12.7
-4.7632856 7.5154285 2.623075 8.8500004
-4.3092241 7.3126163 2.7605398 9.1999998
-3.1434898 7.4048486 2.6587915 14.325
-2.7888052 7.3343787 2.6193457 8.6000004
18.519974 7.3218093 2.6543264 11.5
19.379635 7.497251 2.5656643 9.8999996
20.078548 7.4525185 2.6139994 14.9
20.612068 7.4750252 2.660856 8
20.857237 7.4016037 2.5543404 6.5
23.911444 7.5553265 2.7247996 14.5
-11.608956 7.5964384 2.5645771 8.8999996
-11.218833 7.64571 2.6586428 34.5
-6.5559959 7.5890131 2.5827494 8.6000004
-6.5244312 7.6076751 2.6853995 8.8999996
-5.9918852 7.6817336 2.7330835 16.549999
-5.2395864 7.720098 2.5491624 10.6
-4.6497993 7.6477079 2.6224036 7.3000002
-3.1827011 7.6714606 2.6462688 19.583334
0.97175789 7.8012276 2.6599424 15.9
17.872244 7.5823154 2.747545 10.5
18.075932 7.7456284 2.7090664 9.6000004
18.473331 7.7880588 2.5659795 9.8999996
18.800531 7.7312975 2.5992608 6.0999999
19.033966 7.709352 2.5791557 6.5
20.537626 7.7093377 2.7456083 8.3999996
20.846085 7.6800456 2.7197437 8.6999998
24.239473 7.6423874 2.6658366 11
-11.902693 8.0055094 2.6015742 11.3
-11.452345 7.9189816 2.5949397 28.4
-11.089324 7.8233457 2.7048893 6.5
-7.8953352 8.0223179 2.7365081 9.6999998
-6.9051695 7.8320618 2.5618224 19
-6.5425386 7.9037242 2.7165446 7.9000001
-6.2345896 7.8319497 2.6237595 8.3000002
-5.5578618 7.8746276 2.5865374 11.6
-5.4708672 7.9510627 2.679738 11.875
-5.1534185 7.937048 2.6932268 18.799999
-4.9051228 7.8697443 2.7386003 17
-4.7336035 7.9683919 2.6908672 18.150002
-3.1323121 7.9308796 2.6887233 22.566666
1.1271582 8.0183525 2.7689862 12.3
1.3095856 7.911211 2.6903679 14.6
18.111151 7.863471 2.5906143 10.6
19.212681 8.00208 2.6753795 6.0999999
19.775866 7.8589525 2.6812916 20
20.48735 7.9622502 2.7055497 17.75
20.810207 7.9413633 2.6505644 11.125
23.567038 7.9310455 2.6478434 9.8999996
23.819883 7.9829702 2.6752648 24.700001
-11.929424 8.2226305 2.6606152 8.8999996
-11.743362 8.3081131 2.680268 14.6
-7.6679029 8.294631 2.5813615 16.5
-7.1975446 8.1124954 2.634007 18.525002
-6.9922824 8.2321415 2.6417985 11.1
-5.6729102 8.3140469 2.5284362 6.9000001
-5.0941787 8.280098 2.6965439 15.099999
-4.9061551 8.1344538 2.669318 9.8416662
-4.5024891 8.1470232 2.6194148 11.3
-3.153585 8.2106056 2.7016819 8.1999998
0.75865841 8.3015785 2.5480139 11.1
1.2160239 8.204483 2.7289906 13.2
18.247795 8.1484652 2.6769431 9.8999996
18.631554 8.2516708 2.6168947 7.8499999
18.871887 8.2032719 2.7588696 12.05
19.08127 8.0996132 2.5354471 11.6
19.29924 8.1410484 2.5458636 6.5500002
19.522974 8.0720558 2.6626792 10.7
20.665401 8.2637281 2.6595592 10.05
20.699112 8.1077232 2.5697081 12.425
-11.575489 8.4880905 2.752959 11
-6.9436889 8.5272026 2.6462317 6.5
-6.3928766 8.4381151 2.5709424 9.5
-5.7348943 8.4155235 2.6906471 20
-5.4823971 8.3874846 2.5859933 11.4
-5.1509805 8.5445824 2.6395903 29.924999
-4.8946834 8.4157543 2.6725798 13.75
-3.0425608 8.4828854 2.7100635 22.85
-2.868144 8.424305 2.6179202 9.5
11.326616 8.391717 2.750344 7.0999999
18.666542 8.4864979 2.714057 11.450001
19.046041 8.3336182 2.6376579 9.4250002
19.301821 8.3227196 2.5526049 6.5999999
20.386332 8.5177145 2.5897272 9.8500004
20.651131 8.4530067 2.7114332 10.6
20.836678 8.4874353 2.630008 10.55
21.115595 8.4311104 2.7005568 13.299999
-12.066433 8.7200165 2.7522507 14.849999
-6.3125687 8.6133595 2.6102605 22.1
-5.9983845 8.7749376 2.6981306 9.3999996
-5.6526365 8.7172518 2.7356296 13.1
-5.4913487 8.7758379 2.6740103 11.75
-5.1410718 8.6184883 2.7075393 12.450001
-4.7888165 8.6276855 2.5905864 13
-2.7538993 8.7284431 2.5333796 9.8999996
-2.0267496 8.6800594 2.6779363 15.2
0.28026247 8.642931 2.7425268 16.200001
0.51568985 8.6826982 2.7602377 15.4
17.819252 8.5716267 2.7231231 8.1999998
18.553587 8.6698513 2.7331946 9.8000002
18.839706 8.711668 2.6527452 7.6499996
20.743361 8.7701597 2.6391504 11.608334
-11.793701 8.8256884 2.5338817 17.9
-7.4720411 8.8483648 2.60659 8.1999998
-5.9210448 8.9395981 2.6024578 16.200001
-5.639986 8.9152699 2.7619724 11.2
-5.3657837 8.8516626 2.6316779 17.533335
-1.6662912 8.8732643 2.699178 9.6999998
18.830311 8.8305664 2.763392 27.200001
19.149101 8.9011765 2.6030402 7.3000002
20.832188 8.9277611 2.7243519 10.725
-12.082072 9.1253023 2.6795321 23.700001
-11.83354 9.1049528 2.6005468 11.3
-5.9014215 9.2189255 2.6946902 9
-5.7145977 9.2008524 2.661428 19.65
-5.4951558 9.2244473 2.6107752 20.741667
-2.6225874 9.0803413 2.6482089 11.4
-1.8737421 9.2522993 2.6685181 13.85
-1.6497719 9.3170605 2.5366011 17.325001
-1.3703243 9.2061672 2.6312394 11.575001
-1.1742806 9.2540846 2.5645945 9.1999998
0.60512382 9.1663504 2.6380599 11.25
0.81318855 9.1416502 2.7052407 9
1.159467 9.0982456 2.6766105 8.7000008
20.191345 9.2098475 2.6418166 8.1000004
20.582729 9.2889977 2.6268339 14.200001
20.711479 9.1058969 2.7152781 11.825001
22.450817 9.1890812 2.6628067 6.5
22.913464 9.1327553 2.7669888 8.8000002
24.468334 9.2041378 2.6430092 18.1
-12.170664 9.3505545 2.6090174 14.9
-5.6626987 9.5065193 2.6933858 29.5
-1.8136196 9.4378519 2.63942 18.5
-1.3427143 9.4116716 2.6170366 17.449999
-1.1033205 9.4201536 2.6975179 19.75
-0.7910285 9.393384 2.6240563 9.8999996
-0.50690621 9.5226898 2.7195516 10.25
-0.11511767 9.4948206 2.6428204 16.200001
0.41593742 9.5087357 2.7335734 8.6999998
0.84510112 9.4445753 2.5726252 19
20.084753 9.3363638 2.5546379 9.1000004
20.29985 9.4186993 2.5398922 13.700001
20.5578 9.4287968 2.7027559 11.85
20.813457 9.4168358 2.7549651 22.700001
22.389841 9.3324051 2.5366914 15.6
22.860378 9.4038143 2.7597933 8.6999998
-12.464909 9.6500416 2.5536361 10.8
-12.233652 9.7372522 2.7447217 15.3
-6.246943 9.8289165 2.5598631 14.5
-5.1145444 9.7452278 2.713465 9.6000004
-1.3763605 9.6193886 2.6123023 16.049999
-0.90255791 9.7188587 2.714695 11.575001
-0.62110198 9.6971827 2.585691 17.15
-0.2533896 9.734457 2.5250821 11.5
-0.057194591 9.5963287 2.5466855 9.3000002
0.36845213 9.7726364 2.6671896 13.962501
0.7232762 9.7152786 2.7566953 13.45
0.83048975 9.6849518 2.6652248 15
18.808523 9.8132591 2.653502 12.3
19.992561 9.6721497 2.5486486 23.9
20.535315 9.7649498 2.715126 10.066667
20.792587 9.6913109 2.6821673 9.3000002
29.120834 9.5993061 2.5754004 10.5
-1.5047741 9.9992952 2.5931816 15.8
-0.89104122 9.9720936 2.5755851 13.037499
-0.65431023 9.909255 2.5683279 18.1
0.11359346 9.8734703 2.719785 11.299999
0.38427019 9.8399258 2.7204661 6.1999998
0.73521686 9.9578829 2.7388372 9.8000002
0.92939758 9.8945618 2.5889301 9.5
15.551119 9.9488192 2.7405872 17.5
20.763399 9.8865576 2.7037141 7.3999996
-12.644993 10.139793 2.6135147 7.5
-12.38686 10.124769 2.6471391 10.7
-5.4000134 10.202513 2.6470068 15.8
-2.2217593 10.097677 2.5912135 19
-1.6567552 10.131837 2.5609727 11.2
-1.0687973 10.224442 2.5539813 17.799999
-0.84725881 10.298638 2.6358113 10.7
-0.379637 10.316946 2.6543236 16.4
0.61916965 10.249735 2.7502484 10.425
9.2469521 10.230581 2.6045079 12
18.399693 10.10985 2.7613087 15.1
20.326952 10.230722 2.7151203 20
20.456593 10.149687 2.591929 11.9
20.717245 10.26683 2.6578355 14.85
21.815723 10.104395 2.7459645 9
-1.7529633 10.502785 2.734128 20.950001
-1.4939485 10.394332 2.5857553 7.0999999
-1.1708803 10.380438 2.7349486 9.5
-0.86760807 10.585001 2.5539651 10.6
-0.63292748 10.49679 2.6999216 9.8000002
-0.079733849 10.562031 2.5755553 11.35
0.15968609 10.483976 2.6759419 14.95
0.41004741 10.450102 2.64094 17.283333
1.6824431 10.578604 2.5400047 6.5
7.4977379 10.485346 2.6742337 8.3999996
18.170031 10.529654 2.6154351 6.0999999
18.979771 10.4391 2.6159039 10.5
20.200539 10.469915 2.5618005 21.700001
20.540522 10.341203 2.7062852 14.177777
20.796431 10.463129 2.6629519 11.375
21.127392 10.428442 2.7651958 9.3000002
-12.661201 10.669067 2.6963382 7.1500001
-12.520456 10.612892 2.6536651 13.7
-1.7362976 10.658098 2.7251544 19
-1.281498 10.753131 2.6877213 23.299999
-0.84269667 10.786596 2.6061788 7.3000002
-0.6800971 10.815139 2.7343478 12.7
-0.1587624 10.696451 2.6836722 13.4875
0.19967973 10.810228 2.5860715 14
0.2852205 10.718889 2.5424702 17.900002
0.62245226 10.673825 2.6040542 11.05
0.79143262 10.771248 2.606293 10.9
13.690247 10.638824 2.738708 10.2
20.281612 10.705299 2.6833096 10.1
20.508345 10.713142 2.694144 11.900001
20.867182 10.756019 2.6718168 9.1999998
21.645367 10.677898 2.6405933 8.8000002
-0.95404053 11.031708 2.677598 8.8999996
-0.39280668 11.013106 2.6573994 11.716666
-0.20305473 10.856262 2.6968746 13.700001
0.61729908 10.900204 2.7214491 8.7999992
0.94526851 10.979574 2.718936 9.3000002
18.552233 10.850192 2.5938473 8.8999996
19.754187 10.984304 2.7101831 6.9000001
20.093712 10.938194 2.6374257 13.966667
20.485441 10.917526 2.7243352 11.8
20.72897 10.975832 2.6756306 7.75
21.191755 11.019833 2.5631976 6
-13.18993 11.328316 2.5383139 8.3999996
-12.91876 11.14889 2.6070485 15.3
-12.771756 11.137408 2.7452779 6.8000002
-12.548197 11.102541 2.6854568 9.4500008
-1.9366503 11.132946 2.740849 18.9
-1.5104547 11.121654 2.7550085 10.3
-1.2543516 11.124677 2.6917989 10.1
-0.8132453 11.289564 2.5894985 12.2
-0.31254864 11.116044 2.52213 14.4
-0.078526542 11.180603 2.7245035 11.375
0.11524074 11.196577 2.6723921 14.5625
0.29651174 11.228554 2.6329615 9.6999998
0.72638011 11.222801 2.540863 15.9
2.0923495 11.162252 2.6272852 9.3999996
2.2779996 11.285108 2.6059594 10.4
5.6515379 11.173904 2.6413124 13.3
14.078087 11.213917 2.61866 14.4
19.006834 11.247524 2.7108135 8.7999992
20.09107 11.308417 2.6268215 12.8
20.290127 11.255257 2.7399812 11.85
20.486549 11.118787 2.6183963 9.6687498
21.02013 11.270387 2.630156 16.700001
-13.025912 11.490993 2.6776919 15.3
-12.840534 11.435536 2.6335211 16.5
-3.6506639 11.43299 2.5617054 11.3
-1.4903479 11.521217 2.666822 17.700001
-1.1534549 11.426003 2.587332 12.433333
-0.71573544 11.453089 2.7710192 22.4
-0.39489996 11.500911 2.6555839 18.475
0.051630974 11.517128 2.6642196 12.5
0.3683677 11.484822 2.6397939 10.638888
0.57534438 11.492195 2.6502125 14.233333
0.88395506 11.454004 2.6308126 12.55
14.7855 11.484447 2.6465635 26.35
19.516291 11.52194 2.6056352 22.700001
20.533957 11.452083 2.6442356 9.8083334
20.806585 11.395351 2.753068 21.200001
20.988686 11.479385 2.5930243 20.450001
21.359543 11.567141 2.5601246 13.1
-12.744367 11.744636 2.7052982 14.5
-2.9715095 11.643183 2.6817675 10.1
-2.1082301 11.77044 2.5539622 19.1
-0.51695251 11.687209 2.6519458 12.799999
-0.17116928 11.814178 2.6081471 10.4
0.043697357 11.840088 2.6602693 8.1000004
0.4395833 11.7383 2.6213961 19.65
0.72849596 11.721955 2.6790752 8.3999996
1.4307775 11.831802 2.7103152 14
8.2586298 11.734449 2.736716 10.9
15.559706 11.723365 2.6227643 23.6
19.112988 11.840893 2.7317448 9.8500004
19.302711 11.661788 2.6167321 13.549999
19.455456 11.774713 2.5543408 19
20.338268 11.611765 2.6501658 7.1499996
20.524792 11.681966 2.5518994 9.8999996
20.691891 11.639202 2.7300563 7.1750002
21.3778 11.752208 2.6300957 19
21.536356 11.714178 2.573741 7.1999998
21.816654 11.739703 2.6549733 6.25
22.385712 11.754192 2.7702076 8.8999996
22.956743 11.78125 2.5787592 8.8999996
-8.0465517 12.005931 2.580843 20.4
-3.9091191 12.09791 2.532001 9.3000002
-3.7490578 11.943849 2.6831217 11.3
-3.2510581 12.036977 2.678396 27.200001
-2.7970309 11.943391 2.6373899 9.8000002
-2.5489163 11.89573 2.5645788 9.1000004
-2.404752 11.930103 2.6107304 19.566668
-2.1325049 12.065549 2.7204204 19
-0.64834309 11.945858 2.642458 15.2
-0.48848486 11.863522 2.7366083 16
-0.19273883 11.89427 2.6209188 14.3
0.9739362 11.909498 2.67612 9
1.3261545 12.060647 2.6694365 16.450001
1.6769161 11.882156 2.6935377 19.800001
1.8417636 11.927043 2.6129212 25.700001
3.9661062 11.995497 2.5504606 18.299999
5.3126488 11.951315 2.7325392 26.5
18.628275 12.010456 2.7214832 8.1999998
19.332899 11.958919 2.6481748 11.9375
19.490181 11.949086 2.6051002 20.15
20.510277 11.960877 2.7475994 9.2625008
21.320461 11.978178 2.6637363 29.9
21.905352 11.937441 2.5861936 8.8000002
23.718697 12.095924 2.6131158 8.3999996
-8.1638632 12.347621 2.6131744 20.5
-2.9090633 12.257579 2.6926165 20.6
-2.6941981 12.225636 2.5729902 20.216667
-2.3915339 12.140234 2.6981897 19.200001
-2.1111755 12.159402 2.5434899 22.549999
-1.8848358 12.118154 2.524262 9.8999996
-1.6139536 12.187879 2.6378131 17.999998
-1.3928368 12.298736 2.684633 13.1
-1.069931 12.169586 2.5816796 15.8
-0.90734923 12.294493 2.5955558 6.8500004
-0.59048033 12.176711 2.6987925 24.525
-0.49381447 12.281691 2.6489193 33.799999
0.74273807 12.161809 2.6340206 9.1000004
1.4830995 12.130903 2.5727246 25.299999
1.9671077 12.172589 2.6230991 16.016666
2.3804655 12.232841 2.5377173 10.1
2.8176672 12.292186 2.6466198 14.1
4.7486062 12.301929 2.5742099 15
5.4882302 12.298397 2.6150131 10.8
6.1623015 12.264742 2.5328426 15
6.5360656 12.19458 2.6322024 18
6.8214183 12.318483 2.6893048 13.3
7.8538804 12.296399 2.7370796 16.6
11.594284 12.114679 2.6917403 11.4
19.510054 12.207311 2.6198413 17.127777
19.768024 12.281824 2.7572577 13.3
20.066141 12.285689 2.6627328 12.8
20.592224 12.328808 2.7205615 9.6999998
21.322622 12.133404 2.6506512 22.799999
23.600388 12.348827 2.5357924 6.6999998
-13.108347 12.532845 2.6466072 13
-8.7897758 12.392252 2.5758963 10.9
-7.9991817 12.370862 2.755188 7.9000001
-4.9282126 12.471991 2.6484957 15
-3.1326299 12.446899 2.7362194 13.6
-2.9259877 12.440743 2.6005106 22.325001
-2.6806982 12.42376 2.6582544 13.1
-1.6732849 12.457969 2.7050676 8.1000004
-1.0071757 12.595507 2.7635808 10.2
-0.66449797 12.494153 2.5954125 14.483334
-0.43222308 12.543919 2.7096505 7.75
2.3954039 12.391033 2.7149475 21.049999
2.5351493 12.502798 2.5351264 8.3999996
5.7193923 12.493182 2.5923338 14.3
6.4403815 12.571236 2.7041993 13.450001
8.2615089 12.46434 2.5734358 13.7
10.174824 12.44937 2.7581592 12.8
18.289562 12.532091 2.532089 7.0999999
19.374458 12.463911 2.7494197 13.5
20.409565 12.4327 2.5837736 11.9
21.348904 12.399485 2.5429096 6.6999998
-8.7002869 12.712107 2.6284232 11.6
-7.652627 12.744521 2.6905789 11.3
-7.364006 12.83759 2.5494502 17.200001
-7.2755151 12.740305 2.6236498 9.8000002
-6.9398675 12.781474 2.6833274 17.6
-6.7087984 12.704203 2.671865 10.1
-5.4053507 12.792455 2.6619442 22.049999
-5.0402164 12.662414 2.7641437 6
-3.2069459 12.737674 2.6893497 22
-2.9951322 12.67066 2.7552483 7.3000002
-2.5972204 12.824291 2.7374446 20.4
-1.7231057 12.700166 2.6547074 13.1
-0.84633923 12.736715 2.6621189 15.475
-0.73585385 12.736171 2.5489004 16.533335
-0.39851344 12.812834 2.650156 16.299999
0.006714344 12.81181 2.6651175 6.5999999
2.4319034 12.693188 2.7150116 16.186111
2.5764074 12.82255 2.7292972 8.3000002
2.9413018 12.654076 2.7026803 8.6999998
3.4253607 12.829859 2.6600506 7.9000001
5.5281944 12.613737 2.5841594 17.299999
5.9254646 12.75495 2.6948225 11.441668
6.4776688 12.688433 2.7290084 10.9
8.2152576 12.730413 2.6760864 14.299999
18.029308 12.835381 2.5671215 6.9000001
19.581711 12.766604 2.6903238 22.700001
19.988132 12.675836 2.6342914 22.6
20.516876 12.725777 2.6710787 11.9625
21.160156 12.852243 2.6081419 7.6999998
21.512938 12.628609 2.6956484 14.6
-8.2626057 12.980486 2.6638365 10.55
-7.8402729 12.908808 2.7367778 17.5
-7.4343948 12.985456 2.7373035 19.566668
-6.9594498 13.090162 2.7393427 14
-4.8156614 12.900935 2.5693974 6.1999998
-4.6438828 12.990748 2.6390591 11.25
-4.182023 13.100857 2.7380757 13.7
-2.5088863 13.046791 2.6366978 16.5
-1.5913841 13.088234 2.5578866 9.3999996
-1.3880401 13.028905 2.656224 9.6000004
-0.86528683 12.869754 2.6766105 11.6
-0.72979009 13.100816 2.6216421 10.15
-0.44093001 13.030198 2.6916573 10.25
2.8348854 12.901967 2.6931083 11.233334
3.3539028 13.083109 2.7192135 22.5
5.2013197 13.008624 2.7666564 13
5.3354321 13.098571 2.5398381 17.4
5.7536235 12.950386 2.7171216 13.5
5.8080311 13.045784 2.6604769 12.3
6.174202 13.00273 2.656637 12.137501
6.4098511 12.943398 2.5998044 12.125
8.0154667 13.073231 2.5939016 9.3999996
13.404231 12.900562 2.5348849 8.1499996
17.940374 12.934578 2.5852163 6.9000001
19.609346 13.001637 2.6690335 22.245834
20.276493 12.886126 2.6256695 8.1000004
20.439217 12.900008 2.5713925 10.6
20.801872 13.038319 2.6978593 15.9
21.220819 12.970504 2.6216302 6.6999998
-8.5351315 13.143576 2.6008306 10.8
-7.8986373 13.354139 2.6923795 12.1
-7.3811927 13.308682 2.7379031 12.4
-6.8775764 13.286692 2.7526879 11.625
-6.6009536 13.293098 2.6674118 17
-4.9310045 13.188029 2.6974282 8.8000002
-4.5603156 13.138123 2.6377351 6.5999999
-0.69273269 13.32143 2.6694713 12.25
-0.26987171 13.192307 2.5797253 14.2
2.4453378 13.309259 2.7443695 10.3
3.3088772 13.256203 2.6266365 7.3000002
4.6058455 13.32133 2.6546686 8.8000002
5.0501719 13.188576 2.7121716 14.6
5.4823847 13.29404 2.6690311 9.4499998
5.7109776 13.194963 2.7549243 14.875
5.9031992 13.332395 2.6230898 11.647222
6.0665131 13.244402 2.5325508 11.65
6.3937445 13.259382 2.636236 14.65
6.5673351 13.129204 2.7612836 9.3000002
8.1437054 13.203844 2.644186 10.25
8.4461956 13.199046 2.6123712 15.6
13.352921 13.175008 2.5824568 9.6999998
13.956921 13.235716 2.7434182 11
17.851795 13.18464 2.6275458 10.8
18.040855 13.171761 2.630266 10.8
18.488211 13.182124 2.6050119 16.299999
19.571186 13.313172 2.703196 14.4
20.560017 13.195678 2.6702986 8.375
21.140736 13.326347 2.6151319 9.6999998
-11.56382 13.439374 2.7636318 18.9
-9.426158 13.433644 2.7618351 14.3
-8.4823599 13.487719 2.7518029 13.6
-8.2447309 13.428958 2.5837305 12.6
-7.8380609 13.443445 2.7297978 7.5
-7.4668508 13.435533 2.657409 11.191667
-7.0974364 13.412727 2.6659181 11.462499
-6.9432383 13.482302 2.684778 13.9
-6.7974958 13.524439 2.5278392 27.299999
-4.1595802 13.544798 2.6975262 11.362499
-3.867981 13.473368 2.5558391 16.237499
-2.9794688 13.590774 2.5872681 16.5
-1.6850386 13.399325 2.7056804 18.200001
-0.88335067 13.361137 2.6958125 11.05
1.2220776 13.497192 2.586674 17.700001
2.3319912 13.574697 2.6561606 6.6999998
3.0417242 13.491233 2.7644808 11.6
3.4271204 13.360792 2.6418781 13.75
3.5547523 13.433773 2.5224359 22.299999
3.9328647 13.457035 2.7680914 21.025
4.0904999 13.529 2.7688184 19.049999
4.5772696 13.54932 2.7030323 14
4.9154797 13.456519 2.5214291 10.55
5.5076942 13.532606 2.6439364 10.9
5.6760225 13.513685 2.7308323 18.837502
5.8141346 13.54492 2.6430354 21.375
6.1485806 13.427107 2.620636 12.033333
6.4103546 13.516197 2.6272674 9.3999996
7.9413095 13.466156 2.6417792 11.608334
8.2018452 13.422491 2.6996608 17.200001
14.373087 13.58683 2.6626854 8.8000002
17.601873 13.519554 2.7711191 6.0999999
19.50284 13.528696 2.7296371 9.5
19.784386 13.553619 2.6765704 12.299999
21.138912 13.465553 2.5290444 10.6
-11.399723 13.776811 2.5995781 18.1
-8.1219254 13.792959 2.5621939 30.200001
-7.7434244 13.627691 2.5478244 10.25
-7.4161115 13.762408 2.7266128 10.55
-7.2085867 13.66586 2.6560683 15.137501
-6.9853415 13.733162 2.7298203 16.258333
-6.57901 13.739981 2.6624126 24.9
-4.8801885 13.814574 2.5616283 9
-4.6404419 13.697304 2.6461191 7.4000001
-4.109725 13.623603 2.706346 12.8
-3.1819358 13.78284 2.73664 16.5
-2.5506783 13.68623 2.5953925 13.7
-2.5032663 13.669861 2.7622588 10.9
-1.8418541 13.690239 2.5314863 21.700001
-0.68633485 13.716347 2.6231189 10.75
1.3352313 13.618323 2.6598644 18.5
2.3957007 13.784794 2.6697521 15
3.4398108 13.665829 2.6209142 15.9
3.7446156 13.663817 2.6328664 17.4
4.1819978 13.695944 2.7178416 26.1
4.4256144 13.696178 2.607018 20.974998
4.748209 13.645109 2.6235516 22.799999
4.886878 13.747893 2.665884 17.25
6.2706184 13.802887 2.6084054 14.7
8.0671129 13.785374 2.6361828 8.6999998
8.4453487 13.631486 2.6491933 31.5
12.657661 13.841549 2.751924 19.200001
16.262554 13.793901 2.6286781 12.7
16.717796 13.729397 2.5411687 16.9
17.661945 13.718714 2.7696688 13.4
19.540092 13.767025 2.7218111 23.9125
20.111307 13.73571 2.7205801 13.825
20.254972 13.7812 2.6550772 13.1
20.8244 13.620158 2.5457988 14.7
-8.1727715 13.991032 2.6477394 13.8
-7.2519135 13.968202 2.7317369 14.2
-6.9234171 14.110628 2.722352 11.4
-4.0836077 13.974415 2.6665494 13
-3.8535991 14.012073 2.6838756 7.5999999
-3.7312613 13.974277 2.7017622 7.5999999
-2.3769922 13.914033 2.6861038 18.200001
0.30418134 13.966631 2.6442587 11.1
2.8450506 14.067243 2.5670066 11.8
3.3067017 13.990899 2.6735868 13.6
4.3585916 13.882926 2.5475426 10.3
4.6628733 14.007383 2.6690559 13.35
4.9966087 13.947874 2.6158202 9.1000004
5.1936154 14.103855 2.7551777 6.9000001
5.4367399 13.938152 2.7016201 11.55
5.657033 13.904852 2.5217524 16.125
5.9718823 13.889197 2.6622841 7.0999999
6.4021726 13.936743 2.5498686 22.325001
7.4248381 13.96406 2.6533937 10.3
7.7504463 14.093478 2.5770884 23.9
16.207729 13.978382 2.621851 8.4499998
16.708954 14.030706 2.6359706 16.65
17.109373 13.915703 2.5384445 12.75
19.325668 14.093394 2.6977699 19.724998
19.543629 13.894917 2.6697555 19
20.288002 13.904216 2.7417319 8.1000004
25.001657 13.967039 2.7452374 13.3
-8.3964911 14.277863 2.6500502 10.633332
-8.1388111 14.234571 2.6303978 15.124999
-6.7778687 14.364691 2.7415237 11.4
-4.0028467 14.347142 2.5372043 19.4
-1.2752085 14.34149 2.7354932 9.8999996
-0.98409557 14.244283 2.7300565 6.9000001
1.5293992 14.246344 2.6073673 16.9
5.2327533 14.297029 2.746829 6.1999998
5.5400715 14.224796 2.6916075 9.8999996
5.9486017 14.316248 2.6028385 23
7.2795897 14.30228 2.5412543 19.724998
7.548923 14.358147 2.6673841 17.1
7.8812289 14.219547 2.6593804 11.525
11.935149 14.297298 2.6109135 19.5
12.165812 14.355639 2.7039499 18.299999
16.570278 14.21949 2.7634478 15.150001
17.118393 14.116299 2.5402634 17.200001
19.035816 14.17153 2.7305923 16.700001
19.356682 14.356756 2.7170792 16.974998
19.850555 14.35465 2.7003815 8.1999998
20.056595 14.224266 2.6136971 11.799999
20.29076 14.257381 2.6797223 16
20.436857 14.338072 2.5858665 12
-8.3194885 14.509307 2.7649965 10.8
-7.7913465 14.577467 2.6803713 30.4
-6.881053 14.567604 2.5638499 10.3
-6.5496411 14.470551 2.6397107 8.1000004
-6.2515292 14.425107 2.6689706 8.1000004
-4.7303977 14.453819 2.7362397 18.4
-3.8725584 14.396217 2.6398106 13.2
-3.3047585 14.43671 2.7635789 10.85
-3.0965841 14.555834 2.6286483 11.9
4.4210782 14.386329 2.5420163 13
5.1641617 14.566551 2.7210641 12.9
5.4740305 14.438861 2.5743251 21.1
5.8923345 14.477147 2.6480737 20
6.0926237 14.549007 2.6550167 22.1
6.7332644 14.545873 2.7579067 22.65
7.4749207 14.453499 2.679678 12.216667
7.7093964 14.415385 2.6346517 19.049999
7.8443446 14.525076 2.6245928 9.3000002
9.6235428 14.43577 2.7022367 14
10.457932 14.601233 2.7049384 13.1
10.643617 14.616633 2.7499623 14.5
11.830501 14.540981 2.7637098 18.25
11.969672 14.537896 2.5597887 20
12.10064 14.426448 2.6625261 21.200001
12.434723 14.473009 2.7172375 8.2250004
16.31776 14.523436 2.6439409 9.1000004
16.494398 14.541537 2.6040692 6.6999998
18.57395 14.388037 2.540514 15.4
19.544197 14.492732 2.7565534 9.5
20.340687 14.535234 2.7043071 10.6
21.414812 14.531722 2.6997242 8.1000004
-8.5568657 14.674034 2.748431 10.6
-5.9141827 14.828028 2.6488972 23.6
-3.5166779 14.642356 2.5450611 18.5
-2.8944283 14.691313 2.6774774 6.5999999
-2.521879 14.712843 2.5229447 25.1
5.0113544 14.714216 2.5489972 8.8000002
6.186676 14.793832 2.7054088 6.5999999
6.6927433 14.627701 2.6671486 25.799999
6.977571 14.745466 2.5555193 9.6999998
7.2250123 14.693975 2.7300792 21.15
7.4919944 14.749581 2.6235256 20.512501
7.6787977 14.789207 2.7492914 10.5
7.8862562 14.751396 2.6367397 8.8000002
8.2488155 14.862304 2.6245811 13.5
9.2497711 14.639513 2.6872268 9
9.4856958 14.767057 2.5895643 9.4500008
10.545366 14.66721 2.6714771 7.6999998
11.075036 14.764822 2.66834 8.6000004
11.542626 14.705747 2.7157707 8.5249996
11.751689 14.694132 2.5664587 16.474998
11.888075 14.676846 2.7232099 14.5
16.323421 14.727382 2.6071098 8.8000002
16.43919 14.686218 2.6351929 9.2000008
17.457165 14.746872 2.7058618 7.6999998
19.228052 14.726658 2.5859625 16.799999
19.442671 14.650425 2.7141933 8.1999998
20.082653 14.85862 2.615386 6.6999998
20.30113 14.861091 2.5408976 17.299999
21.529438 14.802057 2.7504358 6.9000001
22.055336 14.625923 2.7371202 15.4
-8.4254999 15.013264 2.6907282 12.25
-8.1451197 15.001502 2.5878475 13.216667
-4.3799129 14.919554 2.5372529 7.5
-3.8635516 14.893451 2.7175925 10.9
-3.7747169 15.09423 2.680963 20.5
-2.9561906 14.928233 2.712688 20.1
-2.549346 15.096504 2.5250907 8.3000002
-2.3590562 15.006192 2.6056306 13.033333
-2.2406168 14.874253 2.6429424 19
-1.1127357 15.038883 2.6435537 8.8000002
2.356833 15.001423 2.7334387 10.9
4.5334101 15.119534 2.5237298 6.9000001
6.4732466 15.0112 2.759733 11.65
6.9417453 14.992189 2.5967045 16.799999
7.1175389 15.01868 2.5801454 19.799999
7.4144459 15.095844 2.617125 17.924999
7.6936555 15.082504 2.7016308 10.5
7.921792 14.903771 2.7719414 8.8500004
8.4061699 14.936809 2.613224 19.299999
9.182972 15.083714 2.6300251 13.45
9.5230589 15.105367 2.7183526 21.15
9.921629 14.938429 2.544404 11.25
11.100242 14.990019 2.7270081 8
11.720017 14.978147 2.5932863 10.616667
12.01206 14.980881 2.7206283 11.926823
12.196602 14.925817 2.6396372 23.799999
12.450293 15.079968 2.6105576 7.7166667
14.418546 15.097132 2.5532489 6.4000001
16.705709 15.088955 2.6424212 6.4000001
19.141088 14.94067 2.7724266 14.275
19.967979 14.985456 2.5382218 6.0999999
-8.8418789 15.211158 2.5501311 14.5
-8.4921484 15.339001 2.5916486 12.9
-7.9866943 15.257159 2.6599102 9.6000004
-3.8825364 15.247001 2.7578046 12.4
-3.4191289 15.288393 2.772469 8.8999996
-3.1923263 15.367527 2.613631 13.5
-2.7935095 15.14809 2.5442617 10.7
-2.6252367 15.367486 2.6573262 8.75
-2.4390647 15.341018 2.6475005 8.75
-1.6167161 15.138342 2.6395299 19.299999
-1.4928343 15.251684 2.6704764 9.6000004
0.12967539 15.306118 2.6333873 7.1999998
2.2552958 15.281404 2.7368207 8.1000004
4.2898579 15.334326 2.6316495 23.200001
6.9822578 15.355196 2.7599323 20.9
7.1637464 15.235893 2.7293186 10.049999
8.2161636 15.278815 2.6059732 8.8999996
8.4677887 15.298969 2.5733886 16.549999
8.7830677 15.24717 2.6500294 13.8
8.9809265 15.301856 2.6111817 16.849998
9.3488293 15.137551 2.5348573 19.549999
9.7620792 15.220213 2.5743351 22.200001
10.118196 15.22444 2.7408614 15.55
10.523547 15.241893 2.6430078 22.5
11.287696 15.288305 2.5290434 10.7
11.533014 15.23808 2.6375928 19.049999
11.729557 15.335335 2.599165 12.108333
11.922734 15.194878 2.6348593 11.695834
12.150162 15.270072 2.6249166 10.027084
12.459515 15.332719 2.5499241 17
12.963295 15.26121 2.5887861 16.799999
13.227566 15.249508 2.6263766 6.6999998
16.596981 15.173801 2.749083 6.3000002
19.145861 15.309484 2.7503006 22.450001
19.292711 15.292044 2.5605416 9.5
-8.4538202 15.497711 2.6906083 10.25
-7.0265627 15.439164 2.6943018 7.8000002
-6.4182348 15.570781 2.5759072 29.299999
-3.35883 15.460229 2.6291554 12.849999
-3.0662856 15.600075 2.6763091 12.5
-2.926245 15.379992 2.7538486 12.7
-2.6955743 15.418354 2.6243854 10.675
-2.5074632 15.589766 2.6105504 10.6
-2.1201975 15.511593 2.5778394 13.1
-1.6325895 15.538348 2.6052973 15.45
-1.2875929 15.438312 2.7449687 13.6
-1.1209028 15.490147 2.6062925 8.3000002
6.1337829 15.502205 2.5241857 15.3
7.3002849 15.527874 2.6824465 12.1125
7.4270678 15.430834 2.5860739 20.35
10.689994 15.386669 2.7680578 25.1
11.751842 15.593742 2.7383964 8.8999996
11.895527 15.467652 2.6826775 12.866666
12.215889 15.481781 2.701539 14.566667
12.415421 15.476948 2.5868621 7.1999998
12.696483 15.410602 2.6972618 20.6
13.081807 15.582327 2.6925757 7.9000001
13.930145 15.388624 2.6903775 10.8
14.330507 15.484426 2.5906065 6.3000002
19.256905 15.459032 2.7209203 23.875
20.405512 15.590563 2.6509476 8.3999996
20.58605 15.381705 2.5257182 31.200001
28.040405 15.590799 2.646487 7
-8.4167204 15.761353 2.5428767 19.700001
-8.2397652 15.775875 2.5834804 17.25
-3.17835 15.830498 2.7058299 9.6999998
-1.9630941 15.755536 2.6217964 11.6875
-1.6473775 15.842626 2.63272 9.0999994
6.7766962 15.730166 2.7248442 16.299999
7.0185213 15.787127 2.5867183 8.3999996
7.1517763 15.745902 2.6444569 13.125
7.3526611 15.714199 2.631305 13.85
11.51894 15.659892 2.662436 11.4
11.868714 15.632544 2.6363642 8
12.218402 15.690569 2.5753927 14.884167
12.751343 15.683333 2.5358582 6.0999999
18.326736 15.815338 2.7037113 15.9
19.119038 15.856963 2.5786476 22.200001
19.173433 15.716347 2.5809867 24.1
20.011284 15.763505 2.7171974 9.1999998
20.323814 15.771046 2.6182981 9.1000004
20.423132 15.765898 2.7280695 8.5
-8.377202 16.10112 2.755784 11.9
-3.310401 16.12203 2.5787337 10.9
-2.3718719 16.092157 2.7716923 8.1000004
-2.1042848 16.040451 2.697541 13.125
-1.822578 15.911028 2.5827916 11.4
4.7962065 15.97064 2.5760589 7.0999999
6.6167212 16.073412 2.6593976 15.8
6.9496284 15.984176 2.6164382 16.816668
7.1223116 16.109512 2.6623507 16.325001
10.26282 15.953243 2.6102121 8.6000004
12.294021 15.884668 2.6204391 16.625
12.462742 16.032389 2.6155729 16.936111
13.183226 15.954438 2.7293468 9.6999998
13.693226 16.093512 2.6404617 9.8000002
16.055632 16.067425 2.5450373 8.1999998
16.284283 16.000177 2.6691632 16.1
16.646128 15.898829 2.7323866 6.1999998
18.749298 16.056965 2.6349869 8.1999998
19.083773 16.037914 2.6326704 18.512501
22.169691 15.890978 2.5381317 11.5
-8.8064079 16.213425 2.7147942 8.3000002
-8.4941092 16.157661 2.7323732 11.9
-8.0998049 16.293486 2.6159306 13.733333
-3.78159 16.178701 2.6316385 7.0999999
-3.0889649 16.252842 2.6450615 11.849999
-2.6866803 16.233177 2.7097268 6.5999999
-2.4457397 16.309086 2.6973426 18.1
-1.9795666 16.2339 2.6475344 8.8500004
-1.6548181 16.302 2.5899587 12.6
-1.4860281 16.326799 2.7677519 13.125
7.0394011 16.262463 2.6326418 9.4499998
7.1237173 16.287682 2.5312355 11.95
7.4212961 16.151211 2.7675681 19.4
8.5838404 16.218691 2.6784673 7.5999999
11.732018 16.281631 2.7133152 9.1999998
12.584337 16.209423 2.6168416 25.5
12.725719 16.268147 2.6932406 20.85
13.085455 16.223904 2.6231546 10.1
13.737688 16.320438 2.6000123 9.3000002
18.435432 16.239704 2.7043786 7.5
19.67911 16.379469 2.5729504 8.1000004
20.554129 16.359013 2.5512135 8.8000002
22.038029 16.363346 2.6768913 9.1000004
-3.6807957 16.383884 2.6324058 9.6000004
-3.4650726 16.444656 2.5439689 16.799999
-3.1696947 16.517202 2.6699874 10.133333
-1.8592634 16.631325 2.6540539 6.0999999
0.03785944 16.576885 2.6829894 10.9
6.9431744 16.399191 2.7345979 26
7.134613 16.472599 2.6047826 17.975
7.423275 16.459219 2.6455281 17.416666
9.3222609 16.579941 2.592854 17.299999
12.392158 16.451853 2.7564869 25.5
13.547401 16.562292 2.6605453 10.1
13.738322 16.494541 2.6950085 9.4333334
15.239279 16.439005 2.5213871 10.4
18.90741 16.504137 2.6072509 14.262501
22.087963 16.476574 2.5365779 11.200001
-8.4544687 16.643152 2.6488581 9.3000002
-8.1026125 16.657082 2.6196492 11.8
-3.3129711 16.727283 2.5551858 11.3
-2.8584642 16.690598 2.6402221 11.549999
-2.7070436 16.859089 2.7106912 17.700001
-2.4402695 16.748234 2.5398881 14.2
-0.58076382 16.718132 2.6024592 17.799999
0.26140881 16.720867 2.6394939 8.3000002
6.3655777 16.808989 2.6652713 13.3
7.1344442 16.825985 2.677619 13.579166
7.4693861 16.746044 2.6304948 19.450001
12.455336 16.76684 2.6603637 9.3000002
12.707067 16.763737 2.7591472 15.85
13.254986 16.822392 2.6897035 11
13.728756 16.700172 2.7000084 8.8500004
13.899715 16.684399 2.7094188 8.875
15.487118 16.749104 2.6972291 15.950001
15.696448 16.730225 2.6533861 10
15.879024 16.645418 2.6524389 16.4
18.00889 16.7684 2.5697954 7.9000001
18.882736 16.670353 2.6792514 13.1
20.458548 16.689962 2.7274399 19
21.017347 16.779753 2.6531181 12.799999
21.90583 16.688148 2.6648026 12.5
27.047983 16.853685 2.5977168 14.4
-3.054884 17.114712 2.7596035 8.1000004
-1.6402287 17.114067 2.539115 7.8000002
-1.5007989 17.018509 2.6170788 20.099998
0.3282733 17.09293 2.5390763 13.85
6.6538672 16.975294 2.6325815 12.418056
6.9021392 17.098194 2.6442821 16.683334
7.0779977 16.963259 2.5372756 13.6
11.04051 16.888708 2.5458689 8.6999998
12.777901 16.985603 2.7117743 18.5375
13.010809 16.984291 2.6062801 16.933332
13.411755 16.906384 2.6003358 19.799999
13.778463 16.984606 2.5432308 20.875
15.348294 16.922531 2.5380545 6.3000002
16.88583 17.092773 2.7428298 9.6999998
17.742912 17.007519 2.6019628 12.3
18.203764 16.981441 2.7317376 7.0500002
18.600746 17.121933 2.7442496 24.299999
18.691437 17.132889 2.6756296 8.6000004
19.058905 16.918509 2.6833601 22.549999
-7.3981657 17.216213 2.6367691 16.200001
-3.2784572 17.251534 2.6395996 16.6
-2.9095516 17.172226 2.5468941 8.8999996
-1.2575226 17.204784 2.6977744 11.2
6.7652183 17.234932 2.5890436 18.799999
11.971259 17.21056 2.546288 12.1
13.701983 17.182165 2.7151158 23.233332
14.529601 17.240246 2.6085949 14.7
16.324318 17.364939 2.5685492 14.6
16.483585 17.217527 2.7699404 6.6999998
17.483332 17.2437 2.728018 20.325001
17.748421 17.265041 2.7086544 14.925
17.976137 17.348541 2.76127 12.329687
18.277205 17.364841 2.6258893 15.1
18.558758 17.300972 2.7096303 23
18.76754 17.243095 2.5776227 15.9
19.094997 17.160263 2.716522 13.7
19.306461 17.265348 2.5317953 19.9
19.861752 17.296463 2.7263377 10
-1.6771255 17.449316 2.6149778 15.566667
-1.4039431 17.545891 2.7013345 13.7
4.0639362 17.622543 2.5216022 6.9000001
6.5287924 17.469147 2.649688 11.6
6.7256417 17.48625 2.7466705 12.3
6.8624411 17.560467 2.6428676 12.99375
7.1751227 17.499672 2.7331851 12.4
12.90249 17.510897 2.7553089 19
14.25336 17.506487 2.7201271 8.1833334
14.562329 17.574396 2.7623487 10.2
15.022749 17.524588 2.761559 7.9500003
16.033333 17.407413 2.63692 8.3999996
16.264858 17.567982 2.5322824 8.3999996
16.579418 17.521116 2.615252 14.6
17.303356 17.419193 2.7099521 11.9
17.498436 17.596483 2.5479677 11.8
17.795998 17.490097 2.634994 9.4333334
18.068094 17.422375 2.5563142 8.6000004
18.198004 17.608471 2.6964328 9
23.646168 17.471657 2.6455445 13.4
-8.8608866 17.706921 2.5945911 10.4
3.4524727 17.886215 2.5750799 13.5
13.736616 17.834162 2.5742486 13.2
14.486451 17.831936 2.5902081 9.0124998
16.010525 17.695892 2.629468 17
16.85907 17.6716 2.6371086 7.4000001
17.016277 17.891951 2.6735492 14.7
17.211866 17.646063 2.6167674 9.1000004
17.477484 17.76289 2.752892 8.3999996
17.706879 17.719929 2.5771294 12.35
18.069504 17.758051 2.5614944 15.3
18.284651 17.692131 2.5316617 14.366666
19.390041 17.878571 2.7556508 21.1
20.222464 17.732803 2.6851051 7.6999998
21.38674 17.881124 2.715929 20.700001
4.6169014 18.000895 2.7482295 9.3000002
13.494348 18.059956 2.7368405 17
14.20323 17.964533 2.6242943 7.5
14.684536 17.977509 2.6616745 14.676563
14.989952 18.120739 2.6127715 13.916666
15.219604 18.09778 2.6333876 8.0249996
16.928677 17.973551 2.7623587 14.6
18.144588 17.903046 2.7204094 28.299999
18.151281 18.013367 2.6088657 15.15
18.408337 18.092964 2.5341358 8.3000002
19.947803 18.032219 2.6020622 10
21.547335 18.05051 2.5213587 18
4.316267 18.355854 2.7041864 12.799999
11.052017 18.34956 2.6687539 13.8
11.315861 18.305239 2.6082463 7.3000002
14.953658 18.215843 2.7442698 24.700001
15.335546 18.223091 2.7245898 10.450001
15.549392 18.332424 2.7004187 13.533333
15.784927 18.277935 2.5602837 7.3500004
16.002661 18.327738 2.696223 13.2125
16.525082 18.368641 2.5430713 8.8000002
18.037622 18.242134 2.5450125 13.2
19.672653 18.260056 2.6099315 11.5
21.340946 18.28978 2.6344166 10.625
21.540359 18.300835 2.6436944 9.9499998
22.676819 18.27985 2.6377091 13.5
4.1821585 18.46899 2.6960475 11.35
4.4261513 18.519072 2.539587 24.700001
11.220104 18.529865 2.6020579 12.575001
14.295401 18.577049 2.6760287 9.75
14.677275 18.552019 2.6507363 11.1
14.877683 18.413792 2.6597757 15.6
15.360783 18.409315 2.6764162 8.6000004
15.515848 18.530363 2.7072778 13.431251
16.023474 18.471863 2.6703207 14.7
16.320688 18.5105 2.6318622 13.128125
16.538366 18.551208 2.7449584 14.975
16.800934 18.491211 2.7012672 12.368751
17.104845 18.497513 2.5325394 14.227778
17.322472 18.494984 2.6585248 14.7125
17.499245 18.524487 2.6038401 14.004167
17.760353 18.422554 2.6884129 22.549999
17.971441 18.51461 2.718751 14.183333
18.264418 18.484287 2.7099524 9.9499998
18.736208 18.419304 2.5566628 16.5
19.214334 18.511929 2.6036391 10.1
19.508286 18.405502 2.6710114 6.3000002
19.841278 18.600584 2.6152208 12.2
21.509489 18.428835 2.5862644 9.3000002
21.783237 18.537079 2.7575755 19.700001
22.578739 18.467735 2.5719237 9.1999998
23.085407 18.606981 2.6066632 13
-2.2169828 18.727842 2.6069312 14.2
-1.6706314 18.680519 2.7579932 12.7
-1.2814269 18.653446 2.7556145 6.5999999
4.2767849 18.896635 2.7173162 10.8
4.2896137 18.887617 2.5240662 14.7
4.672441 18.815836 2.6592009 12.900001
4.9374228 18.753159 2.7473474 10.2
11.211751 18.704563 2.6397452 10.6875
14.129643 18.830364 2.7227597 13.3
